# 3D point list with one line of data per point:
#   POINT3D_ID, X, Y, Z, R, G, B, ERROR, TRACK[] as (IMAGE_ID, POINT2D_IDX)
# Number of points: 389, mean track length: 4.771078517477604
5902 0.28810070989761632 -1.4478154252180317 6.9841223210032455 141 96 75 0.24127217354843697 4 1473 3 1685 10 1799
21076 7.9808601464742104 -2.36305657608243 -0.13977656559862217 194 194 175 0.3711525222196877 29 5619 30 4622 36 2297 34 2109 35 3100
5903 1.7205785693731821 -1.4361124133278114 7.0990770279119859 123 76 59 0.40078518505694122 6 1336 3 1725 8 1650
21077 7.9909089847192734 -2.2567772967346897 -0.084735452027202257 195 196 186 0.67712655025941748 29 5675 30 4687 36 2616 34 2203 35 3468 37 2402
5904 -2.2276716353005455 -1.3717630608513598 6.8273735586909323 130 129 123 0.30208501227026635 4 3792 3 1734 2 1828 1 1574
21078 7.9898359796780687 -1.9058197457454946 -0.16497621218417563 123 118 100 0.53546521141712811 30 4805 35 4164 29 5831 31 2011 36 3282 37 2991
5905 -2.2276716353005455 -1.3717630608513598 6.8273735586909323 130 129 123 0.30208501227026635 4 3793 3 1735 2 1829 1 1573
21079 7.5851087344449279 -2.9442854688780971 5.7707608953054219 111 111 102 0.49871499969994304 11 5998 35 4519 27 840 28 1209 32 5874 38 1840 36 3358 37 3169 12 4166
5906 -3.0304063857645986 -1.3598380777266674 6.7830601285470085 129 122 116 0.36295496715673475 5 1452 3 1740 2 1834 8 1614 1 1579
21080 7.9339268894771786 -2.0992743152298337 0.67092338144108377 194 191 173 0.83787088755917072 29 5892 30 4836 31 2039 36 3193 34 2406 35 4139 37 2953 13 10060
5907 2.5647884060601278 -1.3608458720164982 7.1676024586250477 133 78 60 0.40611358340826548 7 1540 3 1811 8 1734
21081 8.0069407153966345 -1.6609319587162457 -0.28536049649525741 194 194 187 0.67698171004075947 29 5911 30 4867 36 3636 34 2491 35 4557 37 3307 13 8822 14 6544
5908 -0.3065058482897709 -1.2794198965724997 6.9794532131096432 177 172 157 0.26014151287267306 7 1582 3 1844 2 1922 1 1634
21082 7.8705656560487185 -2.2515426656498159 1.5978822357728286 196 190 172 0.51573280662582777 29 5995 30 2151 31 2106 36 3232 34 2440 35 4204 37 2995 13 10042
5909 1.7049477912694562 -1.1844865733693926 7.3255562818458788 126 129 120 0.22240865373384239 4 1668 3 1898
21083 7.8068270058536786 -2.3590597312306949 2.2596255937128604 196 193 175 0.88767854225635356 29 6037 30 2217 31 2142 36 6393 34 2461 35 7773 37 3005
5910 -4.7901019561627693 -1.0730986251842134 6.6941974400743955 101 100 94 0.12684162500394602 4 1646 3 1904 2 2005
21084 7.6986651917277031 -2.0676166715116913 4.223801613230302 186 185 173 0.60681794672537714 30 2606 31 2478 29 6314 35 7955 36 6519 33 3212 38 2126 37 6251 13 10201
5911 -4.7901019561627693 -1.0730986251842134 6.6941974400743955 101 100 94 0.12684162500394602 4 1645 3 1905 2 2006
21085 8.0448651690818576 -1.3733498987147863 -0.86719877542464208 130 99 85 1.200687449708767 29 11467 30 9511 36 10304 34 8559 35 12063 37 9931 14 8371
5912 2.1930358125887426 -1.1367367495699576 7.1805708455309958 147 109 97 0.1081930918507984 4 1678 3 1908 9 1936
21086 8.0246161676278032 -2.3247388714837642 -0.7124776862844765 131 97 87 0.85033363492681413 29 10405 30 8541 31 8133 36 8070 34 6578 35 9711 37 7750
5913 -4.6512132099296846 -1.0604348948971762 6.7016375991438322 154 154 142 0.33807124543454831 4 1652 3 1913 2 2010
21087 6.6658749158042605 -12.742807848227855 5.7173594441708779 75 76 72 1.021324024938868 34 4112 35 11580 28 4059 38 5306 36 8515 37 8285
5914 -4.8394188591441338 -1.1757007849007863 7.5831092108767608 46 65 54 0.1894265860835701 4 1671 3 1929 8 1805
21088 8.1486361153400129 -1.2801404798785205 -2.2502997530329365 188 187 175 0.77554329119279208 29 9416 30 6566 36 3681 31 5056 35 4502 14 5287 15 6534
5915 -0.45532366883221481 -1.0667765977181347 7.0002912841339393 28 21 12 0.23958408868456052 4 1688 3 1932 2 2024
21089 7.3692537366809949 -13.672249642192106 4.3661415086881732 59 62 62 0.88240344566700479 27 4354 29 4539 36 8496 28 3953 38 4047 34 4020 35 9076 37 7145
5916 -4.7555599364112187 -1.131036391446943 7.645938172417754 19 36 29 0.43833478284291222 6 1520 7 1667 3 1956 8 1826 24 2372
21090 7.6402261925458257 -7.2703310154649374 3.3542564049683152 56 55 52 1.3018055290196358 27 6846 28 7848 38 7793 33 7624 29 9225 30 8393 36 8863 34 6238 35 10516 37 8641
5917 -4.7702657877008452 -1.12482239926133 7.637635725551891 71 95 103 0.41448375285017536 7 1668 3 1963 2 2062 8 1829 24 2373
21091 7.5480996026832781 -6.2712208917563128 4.6610667492504918 149 92 70 1.9270137586177694 33 8631 27 7519 28 8571 32 10483 36 11236 38 8502 34 8395 35 13208 37 10492 37 10933 31 9394 29 11009
5918 -0.98812100010574733 -0.75159986711093674 5.9573459810447869 84 90 90 0.88047841955331196 6 1597 3 2026 2 2161 10 2140
21092 7.514752944514826 -9.5410386958355673 5.4654108702953419 61 44 36 1.1842000449155536 27 5840 28 6823 32 8774 38 5479 29 7503 30 7514 36 10035 33 5873 35 10394 37 8496
5919 0.90375597049562617 -0.85439159553885546 7.3051390660881204 24 27 26 0.90010271798243957 6 3800 7 1805 3 2075 9 2136
21093 6.7025415078391672 -9.2082998095227424 6.3327191128464317 171 173 165 2.1514015363743457 28 6882 32 8837 29 5235 30 3990 31 6146 36 10030 33 5907 38 5557 35 10395 37 8500 30 7537
5920 3.337128239548373 -0.87395883104151506 7.5135871209478475 44 42 43 0.41370564428427153 4 1831 7 4008 3 2076 6 3817
21094 6.6358658159874571 -11.596508135561496 5.9781546096291374 49 50 52 0.77722274445950823 34 4174 35 10275 36 9922 27 4546 38 5384 29 4870 37 8354
5921 1.0505707125291801 -0.8481022361055659 7.3209299487998969 178 213 236 0.21005068774784316 4 1816 3 2079 2 2215 1 1850
21095 7.6077558162496901 -2.5797054279818519 5.3192577137979606 113 71 59 1.246390156800937 11 7802 35 9748 36 9384 28 7245 30 5076 37 7820 12 7179
5922 -3.0739622903609081 -0.76250207835459005 6.8774826148197352 125 125 123 0.31272022501776697 4 1821 3 2118 2 2243
21096 6.7425607118600359 -10.651364051561442 5.8855155263287111 76 72 64 1.5820706511426008 27 4580 28 5482 38 4278 36 8652 34 4221 35 10335 37 7352 37 8426 32 7592
5923 0.91645340393996988 -0.79733162868150487 7.2970539014940847 102 122 131 0.70092305489742346 4 1853 3 2122 2 4216 1 3438
21097 7.6261272093207202 -2.4801637277431641 5.0867626975893439 172 173 169 0.90279619962214452 11 6079 35 4959 36 6466 28 4658 32 5920 38 2002 37 3518 12 5635 13 10130
5924 2.9224243636657961 -0.79383607290051206 7.2928819804622256 40 33 35 0.37803578962806 7 5260 3 2123 8 4263
21098 7.6635332917328638 -2.0544585060190745 4.8527062962381358 167 164 155 0.60454374002783828 11 6203 35 5415 36 4235 28 4684 33 3303 32 5993 38 2302 37 3908 12 5783 13 9046
5925 -1.8470970302148002 -0.69263852165672624 6.291137104778505 9 5 4 0.64698788496800907 4 3977 3 2127 2 2250 1 3432
21099 7.6329487799718416 -2.20493717727524 5.0842797857438455 168 163 153 0.73150237564134379 11 6181 35 5282 36 4098 28 4673 33 3266 32 5969 38 2241 29 3123 37 3796 12 5738 13 10192
5926 1.0343684748941611 -0.73299139919645873 7.2898802654543884 30 26 27 0.50824299068229128 5 1811 3 2172 2 2294 1 1916
21100 7.6099843650560235 -2.8759788237378072 5.3755474409563915 152 148 135 0.85376694333322556 11 5957 35 4496 36 3360 27 793 32 5865 38 1780 37 3146 12 5509
5927 -3.8079026950691683 -0.71215310457912528 7.0295418865491106 70 74 77 0.4511922521136455 4 1859 3 2174 2 2286 1 1882 24 4422
21101 7.5502071749562703 -6.2720542824092789 4.6630135409410682 149 92 70 1.8724125451584614 33 8630 27 7518 28 8570 32 10482 36 11235 38 8501 34 8394 35 13207 37 10491 37 10932 29 11010
5928 2.896452398433063 -0.71030592605871679 7.3012218634454955 152 162 167 0.51071217395335455 5 1838 3 2184 10 2376
21102 8.3246621983992846 -11.442874272849286 -9.3435478676756301 37 40 47 0.4696801585055484 35 86 36 46 37 20
5929 -3.7681595490870738 -0.6715126507635798 7.0335550070282444 73 72 70 0.255876540361479 4 1889 3 2196 6 1713
21103 6.9924336346795846 -13.022627164146391 5.4908310275705654 46 44 45 0.51452596592950417 28 62 36 5777 37 136
5930 2.4797628334661823 -0.64327957273801906 7.2360543244911577 122 129 131 0.74991778834337064 5 1852 3 2202 8 4301 9 4355 10 4505 11 3741
21104 8.5750072518029761 -7.1413133640131141 -9.6677827433022419 46 33 27 0.0085805966787891319 36 303 37 298
5931 -4.8914718597160505 -0.60859891358426121 6.7679801367814578 145 158 164 0.23280761205663403 4 1912 3 2207 1 1923
21105 7.5500059573106579 -9.4603880520099946 4.0856330209248739 151 104 88 0.3344676057835963 27 182 35 411 37 356
5932 1.4756306752201005 -0.62464478896785203 7.1744214002840847 132 136 137 0.47107339820770672 4 1936 3 2211 8 2174
21106 7.3188711747877555 -9.5129613429841164 6.0029491473123109 70 74 70 0.96070647580078594 32 172 36 333 37 385
5933 0.98766631420752427 -0.48948042266101399 5.7657253932313379 140 141 143 1.7694994748200086 4 1965 3 2220 2 4272
21107 128.70824408080932 -78.113033852620916 -28.018762925319596 194 232 246 0.12139940277706035 34 4167 37 405
5934 -2.0690581413159683 -0.50731055691800775 6.1657036361809814 134 125 110 0.82896215500461246 3 2224 8 2106
21108 8.3200766507830917 -7.1446716753632407 -2.0403791146498365 179 209 219 0.43873684371602045 35 521 36 438 37 435
5935 -1.5817591377935201 -0.50320011740583936 6.2451861469247785 57 57 55 0.22178485746408766 4 1955 3 2230 2 2358 1 1966 25 920
21109 7.8828256334215858 -5.3038272749066904 3.6156480137681166 112 120 127 1.739587703634389 29 1619 37 719 30 1241
5936 -1.6501671796167936 -0.49416494230439539 6.2449620828805052 123 122 117 0.72399795323741556 6 1799 3 2235 1 1970
21110 8.2593002483254789 -3.5606092151974775 -1.7316039205840177 28 30 29 0.024225907790754959 36 964 37 838
5937 -1.9377950754990261 -0.48954996999742528 6.2289362914250335 66 60 49 0.083982967137229456 4 1959 3 2236 2 2363
21111 7.8574589373984116 -4.6778997443369823 3.7639127882017998 55 51 48 0.29999893119195353 28 4384 36 909 37 845
5938 -3.5029874296122339 -0.49795550950157569 6.8318996101160954 137 146 145 0.48894765287164066 4 1967 5 4122 3 2246 2 2368
21112 8.0187619932351044 -3.2357368596693119 -0.94003253014813526 201 194 181 0.8818394031246829 29 5322 35 1748 37 957
5939 -3.4786163973758129 -0.49764996161442493 6.8389316103930655 135 143 145 0.79969801880233826 5 1888 3 2247 2 2369
21113 8.3100942310725809 -2.2624297224899093 -4.8962281552270825 198 195 186 0.27614097530050891 35 1805 37 1007 18 5359
5940 -3.3053022106559133 -0.49886910774178878 6.8534154399231513 137 142 141 1.1160420010830219 4 4048 3 2252 2 2371 25 918
21114 7.9990119710866567 -3.0536619430535303 -0.70703704315835336 195 189 171 0.2279038514698345 31 1340 36 1212 37 1025
5941 -3.2610817223257405 -0.49943177116672954 6.8569405113427981 135 139 140 0.23307340988537084 4 4052 3 2253 2 2372
21115 7.9990119710866567 -3.0536619430535303 -0.70703704315835336 195 189 171 0.2279038514698345 31 1341 36 1213 37 1026
5942 -1.5687154576134128 -0.44550266283196654 6.2628158605773034 54 55 50 0.46752496925245024 4 1984 3 2265 2 2399 1 1996 25 934
21116 7.994346758308243 -3.0056508828076174 -0.65018201312635182 188 186 168 0.3157844230087769 31 1368 36 1238 37 1047
5943 -3.3469186996246387 -0.42181497502625015 5.8984987075608002 134 90 35 0.3175384811533819 4 1979 3 2266 2 2402
21117 8.410241266198172 -4.70876851446197 6.5340424335705087 55 65 66 0.053861585383838069 36 1160 37 1051
5944 2.2728225685942398 -0.45867123792251163 7.2047824252845736 129 146 155 0.55310907553336441 4 4070 3 2270 2 2416
21119 8.6513096490558574 -0.91568004247872647 -9.9652481873730085 135 135 126 0.1163649764465924 36 1516 37 1166
5946 -0.46416026623180667 -0.33656161616920593 5.7733197664080214 41 38 35 0.099425156322621583 3 2292 8 2221
21120 8.3567625446074629 -1.7904859337971093 -5.6260305136259658 135 83 69 0.082025356557025572 35 1994 37 1179
5947 -0.93496307900031272 -0.17914627362923571 5.6440784736132326 215 229 227 1.3785337779081317 4 2058 3 2334 2 4328
21121 8.2557359811784856 -2.1094725074506218 -4.0593661899062878 106 69 60 0.57459344308920313 35 2018 37 1183 17 6143 15 4818
5948 -2.7891550893811794 -0.15244990147280194 4.8068785194831545 207 221 222 0.075155986333108035 4 4106 3 2365 25 970
21122 7.7735965969257252 -3.4782851258340401 2.6782656172594841 14 6 3 0.27753528120851895 35 7626 38 4495 37 1196
5949 -2.0139592053493649 0.0063954946212957439 6.4226364905258517 64 50 39 0.257426650091024 4 2144 3 2405 2 2541
21123 8.3420254559106546 -1.866656251511146 -5.2008652679721781 141 96 81 0.26018873013821014 35 2019 37 1198 14 2939 15 4980 17 6271
5950 -1.6613904722155337 -0.044626547373077891 5.5012144938022489 67 76 79 0.65047680682335429 4 2156 3 2414 2 2556
21124 8.2139076539134912 -2.2149642825529567 -3.409005990235328 123 69 51 0.36060799479314976 35 2056 37 1213 17 7214
21127 8.1962733867646449 -2.1966352239637708 -3.1639155929782543 130 83 73 0.7049377015212912 31 4389 35 2156 37 1296 17 7207 15 6154
5954 -2.1534249525267288 0.17810278602942015 5.8960237688850636 17 18 14 0.58946327950651534 4 2344 3 2630 2 2699
21128 8.605522503206771 -1.0903059829725172 -8.5880198170070123 167 150 135 0.10399129953664134 36 1681 37 1300 20 2611
5955 1.7899151211100637 0.17260256491785575 5.7617395496298807 82 83 87 0.81719580189998298 4 2409 3 2639 8 2679 9 2716 10 2822
21129 8.050446818365204 -2.6172542983405438 -0.98342037392729731 109 76 67 0.757113213551173 31 4536 36 6351 37 1332
5956 -2.2844581584583037 0.011350063438122037 4.3909416451589172 29 31 30 0.99479338789436389 4 2371 3 2649 2 2716 1 2204 25 1072
21130 8.0507726310663603 -2.5272140836878543 -1.1771756233307007 144 87 68 0.17724437874052301 36 1466 37 1398
5957 -1.7666793406883521 0.12784490421626213 5.2601924261050623 8 8 6 0.51520573324385466 4 2389 3 2651 2 2727
21131 8.4946234446882922 -1.3418352813066594 -7.0545491003274066 179 165 154 0.21914354143712256 35 2218 36 1727 37 1407
5958 -2.0651374861846103 0.24856512391573735 5.6217357038413693 69 75 73 0.31305142036228767 4 2459 3 2717 2 2781
21132 8.4484190095637341 -1.4231935057541123 -6.5260313912788055 184 175 161 0.13854256122673653 35 2287 36 1756 37 1436
5959 -2.2365664220339458 0.10778962857478007 4.6668640795359719 106 78 38 0.38607500550211665 4 2458 3 2723 2 2779
21133 7.9022673030119099 -2.932142140427386 0.94456143559474193 0 0 0 0.714863212621623 30 1474 36 1421
5960 -1.7983730808263276 0.20651380469108618 5.282382221191555 126 147 152 0.11865970363332845 4 2483 3 2735 2 2793
21134 8.4348971643192971 -1.453452278552235 -6.3359231469760484 185 183 168 0.11851335157534554 35 2301 36 1752 37 1452
5961 -1.7526859069425591 0.20579100399170588 5.2588838395548319 35 52 69 0.57698648908621986 4 2488 3 2744 1 3669 25 2492
21135 7.8895149420735207 -2.9503077507670845 1.0715256364192243 104 60 51 0.38603861159567759 30 1487 35 2401 37 1458
5962 -2.8423940894755781 0.1210922380061271 4.6144104745241243 119 89 47 0.7608476309766693 4 2491 3 2781 2 2795 1 2257
21136 8.1618395448419339 -2.1746755621624527 -2.6467541261403236 187 185 173 0.179891694858094 36 1620 37 1486 15 6123
5963 -1.1135218962378894 0.017914716114470049 3.8701441189606989 132 122 110 0.28113100616856174 4 2592 5 4507 3 2827
21137 7.9147460826661211 -2.8369611879623076 0.73476229993892228 126 77 65 0.39665673740902524 29 1774 36 1522 37 1528
5964 -0.85643257817167584 0.022221371912882017 3.8911639412169774 123 108 90 0.45524354837145964 4 2597 5 2629 3 2830 2 2878
21138 8.3369403542309914 -1.6685637630001473 -5.0035310684358283 190 187 175 0.28351976872925205 36 1829 37 1545 18 5460
5965 -2.5348980895318323 0.15296338109475549 4.5023169409701023 93 59 26 0.48083959666759446 4 2591 3 2857 2 2874 1 2340 25 1147
21139 8.309808717018095 -1.7375783937768428 -4.6080993405470636 188 177 155 0.59991842031461085 31 6502 35 2449 37 1576
5966 -2.1746509752757635 0.15280472581074844 4.5032931195192676 106 74 36 0.60536409994133022 4 4412 3 2858 2 4575 1 2356 25 1163
21140 8.5032372511745837 -1.201847901726522 -7.2361837159083731 172 174 161 0.49069185487204492 35 2410 36 2011 37 1579
5967 -2.107433029694108 0.30614664445652651 5.3045953018266392 41 44 46 0.34250622106803769 4 2603 3 2861 2 2885
21141 8.6384968288745565 -0.78756941215264109 -9.0633223845017277 167 168 155 0.19600870879513282 36 2228 37 1669
5968 -1.7914765198178155 0.30508060170926649 5.2833472203952079 81 91 90 0.26341686689000299 4 2604 3 2862 2 4593 1 3719 25 2525
21142 8.1978903388293691 -1.9868208923056723 -3.078148233956798 184 180 155 0.33563949640964008 35 2579 36 1895 37 1695 17 7249
5969 -0.058550493816787723 0.34497950585845361 5.0517546643672429 57 60 60 0.33854135485421893 4 2684 3 2950 2 2930
21143 7.9028700962085727 -2.7405325693959472 0.81980839772754888 182 169 153 0.39162656169604099 29 5662 35 2701 37 1733
5970 -0.21987725186775631 0.38947782558611793 4.865142588511417 61 64 67 0.27810059163879292 4 2746 3 3018 2 2980
21144 8.140618169907107 -2.0917940489894615 -2.4230985124517872 197 187 175 0.32615365517961403 31 4551 35 2631 37 1737
5971 -0.12638558926930865 0.39430064220692862 4.8478067466207424 60 64 65 0.26359987229385867 4 2750 3 3024 2 2983
21145 8.3347511276136199 -1.5565862115396505 -5.0348818410161851 185 180 160 0.93357186413563797 31 6508 35 2605 37 1752
5972 -1.0643472383722867 0.42828416722212292 4.7506491445428338 48 54 52 0.22864149162966185 4 2770 3 3058 2 3003
21146 8.4154488001318395 -1.3341795681910984 -6.0535899671005327 183 178 156 0.013181165142962185 35 2638 37 1794
5973 -2.2790954744619851 0.42395977069840934 4.6631139083540969 40 47 49 0.3686857780684607 4 2772 3 3069 2 3001 1 2448
21147 8.246353685463701 -1.765249907943526 -3.7986004589388482 184 186 172 0.29012579166178049 31 6644 36 2133 37 1837
5974 -2.283472983021746 0.44167506792674721 4.6046001113913455 75 87 93 0.51335741277789126 4 2790 3 3080 2 3022
21149 7.9964293111202327 -2.4208531992168636 -0.44664129380658435 190 191 182 0.081397167814448862 30 4533 35 2823 37 1873
5976 -2.3164269780523297 0.45784771860759815 4.5740749501723412 34 34 32 0.45634218781015246 4 2803 3 3092 2 3033 1 2471
21150 8.2236854984056524 -1.8288278085584968 -3.403258094372422 185 182 162 0.091703211327319886 36 2148 37 1878 17 7322
5977 -2.3164269780523297 0.45784771860759815 4.5740749501723412 34 34 32 0.45634218781015246 4 2804 3 3093 2 3032 1 2470
21151 8.3411660892040018 -1.5025094001537065 -5.0131305256552601 184 186 175 0.19931376564527983 36 2247 37 1881 18 5503 35 2729
5978 -0.63710282071534485 0.47451022830415057 4.5246239709202163 62 71 76 0.28920149187912991 4 2831 3 3106 2 3070 1 3827
21152 8.201277824288761 -1.8675939687921883 -3.1634032881950387 192 181 165 0.36369378456615681 31 4534 35 2778 37 1898 17 7294
5979 -2.3573183496935961 0.48948680416170254 4.4680589415703551 45 48 49 0.28132451935929609 4 2833 3 3126 2 3063
21153 8.2085719106886863 -1.8606614676919893 -3.2088062705174072 197 189 175 0.062298638018294404 35 2779 37 1899 17 7299
5980 -2.3573183496935961 0.48948680416170254 4.4680589415703551 45 48 49 0.28132451935929609 4 2834 3 3127 2 3062
21154 7.7101121764478764 -3.223735889236409 3.745311979965734 169 161 151 0.37170074051891033 28 4486 35 2983 37 1968
5981 -1.7211120334455996 0.4924489231341358 4.4730601456604235 119 133 135 0.23988659836544826 4 2851 3 3132 2 3078
21155 7.697698864764031 -3.2569132070200952 3.9439998725255423 164 156 146 0.14817137815571912 28 4502 36 1867 37 1986
5982 -2.2788296201639171 0.49750737718388299 4.461910970868856 81 90 90 2.3207888886952324 4 2843 3 3136 2 5771 1 4548
21156 8.5737016657227922 -0.85446670033067373 -7.9980246518779889 142 96 79 0.3062473112310008 36 2575 37 2005 19 3879 17 2647
5983 -1.6562104969230966 0.49341451893310595 4.4624318001976295 130 141 143 0.25492968422638501 4 2856 3 3137 2 3080
21157 8.3415161563183755 -1.4536668602488549 -4.9576097649635207 185 184 171 0.13340779851510173 36 2407 37 2014 18 5513
5984 -0.97814170456577643 0.268524463401771 3.7807959790529764 185 176 133 0.17754142425452191 4 2885 3 3147 2 3093
21158 8.1938374925907116 -1.8138753516483324 -3.1043385225481019 195 193 176 0.69283989679762448 31 4581 37 2025
5985 -0.66262023925212321 0.26812755828996032 3.773150496605286 187 172 147 0.32783622900285281 4 2892 3 3152 5 4716
21159 7.8543427524329426 -2.7834194165724377 1.7675847082109875 183 180 169 0.37978129327447768 30 1764 36 2099 37 2062 29 1972
5986 -0.4689080957177707 0.2722582888607028 3.7489293046171963 177 125 55 0.46460963712820696 4 4666 3 3167 5 4750
21160 8.1678765745950788 -1.8956568211967517 -2.64926606458106 187 185 171 0.24915836439313521 31 4635 36 2335 37 2067
5987 -2.1551410614290734 0.53360227752641809 4.2774571902788585 109 119 121 0.31229650788248053 4 4694 3 3210 2 3126 1 2547
21161 8.2710277341464256 -1.6168781931127403 -3.9763963715265458 189 191 176 0.35006065788079321 31 6681 35 2974 37 2090 17 6298
5988 -2.1551410614290734 0.53360227752641809 4.2774571902788585 109 119 121 0.31229650788248053 4 4695 3 3211 2 3127 1 2548
21162 8.2433216152517801 -1.6520163829834023 -3.7370990940536166 189 184 166 0.095374500650245927 31 6702 36 2461 37 2126
5989 -1.088025114448208 0.29011078211604852 3.6551521437050525 189 131 47 0.63929507440874545 4 2957 3 3214 5 4807
21163 8.2252380271434351 -1.7028850757246621 -3.4475116086238424 191 188 171 0.29938397194674399 35 3042 37 2139 17 7353
5990 -1.0356086917251262 0.2910017200025074 3.6521087634651774 193 153 91 0.48824730654687931 4 2958 3 3217 5 4809
21165 8.1985414748880263 -1.7700618652094153 -3.0423213248617129 186 182 170 0.54878105021973766 31 4636 36 2488 37 2175 17 7320
5992 -0.68715172486493759 0.60647176795522062 3.9145426702739448 80 89 94 0.32266667417329992 4 4811 3 3310 2 4850
21166 8.2001744884463008 -1.7610391834514789 -3.0857654530725815 187 181 165 0.29443731428039654 36 2489 37 2176 17 7324
5993 -1.0678959773898968 0.60722399719788045 3.9045294144174436 55 57 58 1.2314304680305133 4 3076 3 3312 5 3182
21167 8.2056556438011778 -1.7521670529472084 -3.1432668840447899 201 192 180 0.17984497153351522 31 4623 36 2490 37 2177 17 7330
5994 -0.25336514892561546 0.60602503519843975 3.9075796250583705 73 86 92 0.20855054666815898 4 3087 3 3315 5 4950
21168 8.4114425156249553 -1.1761914547696068 -5.9655464262270677 136 97 82 0.6141044484295225 35 3021 36 2658 37 2195 18 5658 16 3445
5995 -1.0282112414042988 0.61640580485181173 3.8589237504908236 73 79 81 0.19603876937434747 4 4827 3 3326 2 3227
21169 8.3976683342186398 -1.2395058697542003 -5.6279947249366975 141 88 70 1.2907491329812553 31 6570 35 3057 37 2213
5996 -1.0282112414042988 0.61640580485181173 3.8589237504908236 73 79 81 0.19603876937434747 4 4826 3 3327 2 3226
21170 8.377918090408059 -1.2413817271281782 -5.5733570558790362 140 92 78 0.22208454751048232 31 6579 36 2670 37 2235
5997 -1.3272969053709816 0.61881016580462489 3.84757388857467 81 86 88 0.20178141601829211 4 3102 3 3329 2 3225
21171 8.34403144039719 -1.3327214610347253 -5.0387793055690508 147 95 81 0.62941661268095472 31 6642 37 2256
5998 -0.83798151855554548 0.6223647234893096 3.8320947747592435 80 89 94 0.18211393685858149 4 3130 3 3335 2 3253
21172 7.8738128437951271 -2.6209409153192649 1.4372359275500719 182 182 172 0.28451025126182028 34 2227 35 3317 37 2263
5999 -1.5790072811473594 0.62307132674866261 3.811408736850733 100 110 112 0.70590925807371674 4 3125 3 3343 2 3241
21173 8.4550417626097474 -1.0425715597823053 -6.4860495750482583 136 94 77 0.9153218740433392 35 3093 37 2268 19 3800
6000 -1.7720157365482039 0.62261444188211734 3.8020266415825801 109 116 119 0.30457522744599308 4 3126 3 3345 2 3237 1 2628
21175 8.43572191135042 -1.0811623454466615 -6.2343043880657936 140 90 72 0.58679803755865634 36 2759 37 2283 18 4485 16 2399
6002 -1.4839593392649917 0.63078224227631163 3.7765057816110881 102 108 108 0.67985061809114711 4 3153 3 3361 2 3260
21176 8.4386929716490258 -1.0730436960167451 -6.2831314313034516 135 101 89 0.66186645227370289 35 3126 37 2284 19 3791 18 4490
6003 -2.589194101555369 -2.8595316044604697 6.54811593769253 54 41 31 0.17565080480905823 7 3190 3 3386 2 3353 1 200
21177 8.4502956686871471 -1.0582461227638187 -6.3792383217019824 142 102 84 0.53810851471264798 35 3106 37 2286 17 4995 18 4496 19 3797 16 2413
6004 -0.7664682629025843 -2.8925585540323104 6.6694209532474336 50 40 28 0.24173388518134248 4 3179 3 3406 2 3347 8 3373 1 2729
21178 8.3851526478248974 -1.177909404921019 -5.6166739127004837 145 98 78 0.46179894753015488 31 6607 36 2784 37 2345
6005 -0.66710856279601616 -2.8947922699296669 6.6773831039727094 56 42 29 0.27422117490577991 4 3180 3 3411 2 3348 8 3370 1 2728
21179 8.4599231829416901 -1.306047000609827 -5.0779530650614078 144 100 86 0.28893193089998659 31 6670 18 5580
6006 -0.56372829031254257 -2.8994201668207107 6.6865824880255662 42 34 21 0.16466004101140305 4 32 3 3412 2 3349 1 2726
21180 8.4384079137593186 -1.2930032512741418 -5.1196337950146127 145 93 79 1.792387467222742 31 6667 17 6460 15 5216
6007 -0.36273173868260034 -2.9018312028340452 6.6981343668896542 44 36 25 0.27115960850817983 4 3184 3 3414 2 3344 1 2723 25 404
21181 8.3337913313459548 -1.3102814173140831 -4.8302694503364743 146 100 84 0.55024598718294382 31 6689 37 2406 18 5554
6008 -0.059801367159642689 -2.908956983096235 6.721421054760798 33 29 18 0.24879089093033624 4 53 3 3416 2 3345 8 3354 1 2721 10 3493
21182 7.836270554728447 -2.6363050417336047 1.9002478990813598 178 179 171 0.29491821298548587 30 1917 37 2431 29 2040
6009 -0.97832790658562196 -2.8747231588657658 6.6553527770330536 142 88 67 0.23937881889434443 4 3187 3 3418 2 3358 8 3387 1 2737
21183 7.9025171690704274 -2.4239037023563643 0.96465811255971956 186 175 163 0.15617819564667648 30 1797 35 3584 37 2500
6010 0.13912936848792309 -2.9126498397238203 6.7361994618400782 51 39 27 0.51778112489131778 4 3190 3 3419 2 3338 1 3912 25 400
21185 8.1142927093720978 -1.9013228184633091 -1.6170614348671091 153 98 76 0.87171412007374816 30 4536 31 4859 37 2533
6012 0.44121586949881836 -2.9192778400202108 6.7545603656309936 49 36 25 0.17838997816838528 4 72 3 3421 2 136 10 3511
21186 8.2122091868467599 -1.6153515224827977 -3.0050785127401687 149 92 75 1.9898330702469753 29 7733 37 2551 14 5110
6013 -2.4549021079214701 -2.7986351030849925 6.5662748657023977 181 183 175 0.16237762145892606 7 3232 3 3434 8 3450 1 2780
21187 8.563516599031427 -0.63653747846895103 -7.9176688619569147 171 164 145 0.21592252399390369 35 3405 36 3035 37 2553
6014 -2.0906565553357357 -2.8087370122133 6.5946602249345947 172 175 166 0.49464720526531436 4 3209 3 3436 2 3394 1 2779
21189 8.5516354155080325 -0.67720448850014192 -7.6707752598125714 164 158 133 0.037443610584649109 35 3445 37 2568
6016 -0.21492370750484888 -2.8503661527760005 6.7193530079386257 55 36 21 0.32381023797039393 4 3224 3 3455 2 217
21190 8.125648733987763 -1.7786628033302763 -1.992601285467579 144 87 70 0.41217977475232753 31 4862 37 2621 14 5001
6017 -0.21484048686975254 -2.8505240696053518 6.7191579096957934 55 36 21 0.40064209706332599 4 3223 3 3456 10 3536 9 3358
21193 8.4963901431939348 -0.73323552795163471 -6.9714119268229595 151 153 140 0.18444557583819279 36 3191 37 2738 19 4949 18 4592
6020 -4.0274495555911436 -2.7035723013577941 6.4663192963717009 50 30 19 0.28311172365493392 4 3230 3 3469 2 352
21194 7.65432409699243 -3.0329183561701645 4.6620109202698794 163 165 161 1.0710492335355579 33 2701 37 2739 12 5345 38 1386
6021 -4.275295978074575 -2.6885623161520598 6.4756556250486259 50 33 25 0.34434468512336092 4 3246 3 3482 2 407 1 465
21195 8.2091935917745378 -1.4766035101026234 -3.142661511006573 181 180 162 0.39193374471215003 36 3070 37 2751 17 7398
6022 -4.5670489871114945 -2.674945509805994 6.4518146331374657 98 90 86 0.68974722214872242 4 4885 3 3484 2 3454 1 2845 24 2037
21196 7.8500769512221673 -2.4683452849522118 1.8807601774740197 137 85 72 0.32753169336978832 30 2070 37 2758 29 2129
6023 1.5047646599153381 -2.8426404552495423 6.8533503280044812 121 74 65 1.5214668461220917 4 4896 5 3328 3 3494 2 4959
21197 8.2325297973494855 -1.376780618951756 -3.3802390406451903 175 167 146 0.3172391274803954 31 4851 37 2851 17 7441
6024 -3.2944721088216351 -2.6168430261942568 6.5416739198757856 149 94 73 0.5492511468202913 4 3304 3 3539 1 2881
21198 8.7273667519233928 -0.1495538702009658 -9.6233752389944041 152 147 136 0.1158409075446428 36 3424 37 2853
6025 -1.4298587432773253 -2.6530124614980339 6.6763729043524345 41 26 23 0.28213299366899353 4 3327 3 3554 2 490
21199 8.2025689662734997 -1.4454207987480954 -2.9823408280099577 190 186 167 0.56256024982909325 31 4890 36 3205 37 2858 17 7400 15 5068
6026 0.96632932608951749 -2.6976943492036809 6.857056724419782 31 21 19 0.53592668627372231 4 4918 3 3582 2 4997
21200 8.193173542621766 -1.4701490467869445 -2.8318040935678184 185 174 152 0.28530933399553748 31 4906 36 3200 37 2870 17 7386
6027 -1.1450755165872384 -2.6121655129678238 6.7035885977979959 43 26 19 0.28053421394295225 4 3358 3 3602 2 3534 1 2897
21201 8.1936752242354025 -1.4701090118628934 -2.8320944333014237 185 174 152 0.29210627803418115 36 3201 37 2871 17 7385
6028 1.3402006304047682 -2.6765619761860346 6.8608576066349523 109 71 60 0.40159869286801059 4 3371 3 3603 2 498
21202 8.1767836632780426 -1.503057519901589 -2.6368683870605856 192 185 168 0.10689659537827143 31 4922 35 3961 36 3196 37 2880
6029 -0.13035349363084703 -2.5966915902814987 6.762785790977202 158 107 77 0.48415849417126439 4 3385 3 3623 2 3554 25 471 10 3771
21203 8.1713523605024143 -1.5199365976125847 -2.5361727285429381 191 185 169 0.11844167586245342 31 4928 36 3215 37 2896
6030 0.29239951192363911 -2.3778967195314333 6.8321002579514003 88 87 79 0.73808526979406941 4 3462 3 3729 2 3690 1 4037 10 3921
21205 8.3833312414914793 -0.88325063167659312 -5.4089640768335165 181 176 163 0.55474907787223771 35 4044 36 3461 37 2983
6032 -2.632719527801747 -2.1072722074956332 6.6651560549073512 96 93 86 0.5000949613846446 4 3528 3 3805 2 3779 1 3065
21206 7.9614980050967743 -1.9937779935906701 0.37277747591603538 181 167 149 0.28316773387302596 36 3294 37 3008 13 8654 14 6342
6033 -4.6250997079283547 -2.1417169143208388 6.7704223969806536 58 68 67 0.74101609338072016 4 4992 3 3809 2 1177
21208 8.2233357306768085 -1.2539407777530251 -3.1507217942113868 190 186 177 0.44993355312964323 31 6903 37 3074 17 8200 35 7771
6035 -2.490995123501599 -2.0164058080426015 6.6909455164299665 147 96 69 0.32219198322933906 4 3574 3 3830 2 3813 8 3822
21210 7.675658119530854 -2.6893524896987016 4.2520594670175509 161 161 149 1.464698021728049 28 4600 36 6401 37 3102 12 5437 33 2834
6037 -0.74231211396604357 -1.96999215237706 6.8363768185535321 137 92 71 0.71998858013784295 6 4916 3 3872 8 5192 10 5420
21211 8.129016989469255 -1.4205093055213567 -2.1200521354368664 176 169 153 0.51752158663467696 30 7788 36 6427 37 3130 14 6612
6038 -1.6632732128424093 -2.019812834770581 6.9639321893777018 94 94 96 0.083874586756250771 6 3497 3 3877 4 3612
21212 8.5291871396103165 -0.4180330648271155 -7.2204104014528401 154 99 68 0.30618379803784646 35 4196 37 3138 19 3985 18 4659 16 1121
6039 1.7143216590171155 -1.979587196835815 7.0030971975782395 115 79 65 0.31474171135290874 4 3639 5 3715 3 3888
21214 7.9455640321083925 -1.9349502628275816 0.5975643924573345 95 66 56 0.72629496348516831 36 3542 37 3152 14 7397
6041 -3.5413196776326501 -1.941456735420598 6.8650716263805895 37 37 35 0.05249122317999376 4 3630 3 3900
21215 8.3477277602423552 -0.7858832222868064 -5.2502243543748595 184 180 167 1.3290010273159119 31 6860 36 3624 37 3153
6042 -0.85999365331928745 -1.9438769151564921 7.0328807592007836 13 12 12 0.5768314722940161 4 1167 3 3911 2 3885 1 3149 25 619
21216 7.7113567208787179 -2.5740220503039626 3.9027099989700611 159 159 147 0.37110867490910499 35 4464 37 3175 12 5439
6043 -3.7574620822237987 -1.8838185037778377 6.8402087079822316 43 39 38 1.6334204885590859 4 3644 3 3913 2 1457 1 1325
21217 8.2026425498927953 -1.2367816062658779 -2.8890457115541808 185 179 155 0.20668114267535601 36 3599 37 3182 17 7459
6044 -0.15638419472346374 -1.8721876956198815 6.8866874579782467 188 194 192 0.36742394059729783 6 3521 3 3917 8 3883 9 3898
21218 7.7004459161472862 -2.6169544943639917 4.1535359847011293 165 161 150 0.29612119891738381 36 3460 38 1546 37 3194
6045 2.8038246946923637 -1.9210255079651741 7.0974885240633103 128 125 108 0.49060597532404066 4 1213 3 3923 8 3887
21219 8.3285194985948312 -0.87647610921589036 -4.7079447359173843 187 181 166 0.12129114914286963 31 6883 37 3201
6046 -4.7781675448943961 -1.7109436105244462 6.5848535094913867 159 159 150 0.44777910723718151 4 3672 3 3942 2 1564
21220 8.1765122340369238 -1.2919953649821534 -2.55102156214119 186 181 161 0.22003802744884005 31 5025 36 3611 37 3215
6047 -4.7528121980576552 -1.699315290363131 6.5977190696251693 51 48 43 0.43622242160306535 4 3676 3 3949 2 1574 1 1397
21221 8.1571983281105229 -1.3323663986230203 -2.2994395717768819 189 186 179 0.2377063341579623 31 5040 35 4405 37 3232 15 6514
6048 -3.1780770667977882 -1.6469619443065535 6.7131740090306833 119 92 82 0.61600912447951894 4 1289 3 3973 2 3967 1 3202
21222 8.5330503540559679 -0.35608333797916858 -7.267731048928221 135 81 62 0.14969748501708249 35 4297 37 3248 19 4003
6049 1.6521900678704318 -1.7138807698053209 7.2839473627097151 73 87 90 0.31885210876380699 4 1349 3 3989 2 3979
21223 8.3359948511433686 -0.85179484368528013 -4.630972227756728 142 89 77 0.42427506733062381 31 6897 37 3259
6050 1.7810918833736684 -1.518512413322453 7.0935544997890299 138 101 91 0.46022643204346619 4 3768 3 4018 2 3996
21224 8.2179050569387133 -1.145000222152244 -3.0864324068839206 185 181 162 0.002962581347303872 31 5027 37 3262
6051 1.9029389125810687 -1.4955601835857606 7.0991301935576576 123 74 55 0.34894167008763005 6 3618 3 4025 2 4001
21225 8.1794158206165708 -1.1992744313364065 -2.7336178628544423 189 186 181 0.1793176966436355 31 6964 36 3674 37 3284
6052 -3.1880734347993029 -1.4177328882259319 6.7663341277299196 108 97 94 0.21602016972529819 4 3765 3 4031 2 4019 1 3242
21226 7.8592287077596277 -2.1239490659703555 2.1340660961574884 176 170 156 0.92194728214524224 29 6088 36 3620 37 3327
21227 7.8312219344496654 -2.1506094263887974 2.3264970061159946 176 170 158 0.21863025433261876 35 4659 37 3340 12 6503
6054 0.35444272911526165 -1.1089388429588931 7.0482559279791968 140 77 52 0.18255503978783927 4 3846 3 4099 2 4089 8 4106 1 3316 9 4122 10 4300
21228 8.4141593882171435 -0.58937153662943675 -5.5218275600094033 138 82 65 1.604573045245911 31 6902 35 4531 37 3358
6055 -0.41241185603668012 -0.91094530471597102 6.4316420734644861 177 180 164 1.6137368109762757 4 3876 3 4131 2 4132 5 1667 1 4208 25 5309
21229 8.3987951968795738 -0.60742002877398793 -5.4006690945245435 139 82 63 0.72991255049808346 36 3799 37 3364 17 6574 15 3688 18 5735
6056 -0.42062502465625623 -0.99883426463734659 7.0309951319542359 168 171 155 1.215225742952144 4 3875 3 4133 2 5312 1 4213
21230 7.840039755720535 -2.0226531594506141 1.9337484507974194 176 179 169 0.27699083552044773 29 2557 36 3683 37 3373
6057 -0.49183059543657803 -0.99281576519143022 6.9960153606312412 167 175 164 1.5256095468491047 4 3884 5 1664 3 4137 2 5318 1 4212
21231 7.8479907246081551 -2.0706974062928647 2.1896649122148957 179 177 165 0.26410499765500783 30 2368 37 3376 29 2611
6058 -1.32455214777106 -0.80521572561920318 5.93680967841384 43 26 19 0.41520040366117 4 3895 3 4152 6 3741 2 5334
21232 8.3554554550736064 -0.70859920846943381 -4.7750489340717568 142 89 67 0.24865719387210419 31 6950 35 4604 37 3385
6059 -0.65926200756113129 -0.74075518661319872 6.0092012450350962 88 97 104 0.95880694448468728 4 3935 3 4179 2 2177
21233 8.6923335476703514 0.20938908969805681 -9.4407101578191828 153 150 143 0.17396353699308453 36 3866 37 3392 20 2744
6060 1.2646909865279614 -0.85543580591880752 7.2072523814106724 124 123 119 0.25609266235919176 4 3956 3 4188 2 4198
21234 7.7894044084253258 -2.1562272766494068 2.7465600598144797 170 171 165 1.5892024294645481 29 2706 37 3395 30 2394 12 6535 13 10133
6061 1.2016668974238847 -0.85323073142945616 7.2386933358555998 87 75 63 0.94330262538498766 4 5183 5 4038 3 4191 2 4200 1 4261
21235 7.8051277614120087 -2.1504842989423381 2.6856985809461054 174 171 166 0.76994210739782121 36 3703 37 3396 12 5442 13 8769
6062 1.6589210118002478 -0.83737359546733725 7.4055830701606524 32 32 30 0.67882896552307148 4 3978 3 4210 2 5381
21236 7.9245935023777854 -1.8171034853054824 1.212822961162187 112 77 69 0.30512501456033725 30 2342 36 3781 37 3424 29 2484
6063 0.72592982297128705 -0.79023256336237047 7.2927845793662183 100 116 129 0.16029338889536734 4 3999 3 4227 2 4218
21237 7.8042344909891428 -2.0749478687528531 2.6047109082665263 172 171 166 0.59400847440247018 35 4822 37 3431 12 6540 36 6458 13 10147
6064 -4.5040606363036764 -0.82916862780057943 7.8874829448909738 44 51 49 1.5666776800923827 4 5196 3 4239 2 4230
21238 8.5924994488617212 -0.022522136417950134 -7.930707710867547 178 168 156 0.035809385865802491 35 4652 37 3444
6065 -1.8249982252724535 -0.62867558007656632 6.3157462604735004 87 96 101 0.75334071826403814 4 5210 3 4252 2 4246 1 1909
21239 8.1683651834200699 -1.1072955687632111 -2.3158306636586135 143 91 71 0.28386101868586305 31 5125 35 4752 37 3448
6066 2.7112405354427218 -0.64838224284149015 7.2537299484840885 122 128 132 0.45737410561068587 6 3875 3 4259 11 3738
21240 8.4231947566446106 -0.45375033789638397 -5.6670407597820294 175 172 165 0.27152060612597184 31 8209 36 3879 37 3465
6067 -4.421849067734998 -0.533007534749946 6.7697441353272891 115 123 125 0.51839715884086279 4 4035 3 4282 2 4273 25 901 24 4447
21241 8.3388190647309646 -0.63865309008623072 -4.5110331427414669 193 192 174 0.014544752887440771 36 3897 37 3500
6068 0.92559004756165475 -0.41484155449070143 7.0222163196812426 134 136 133 1.4555321353842432 4 2010 3 4300 2 4297 1 3497
21243 8.0157735744698524 -1.4198481513928591 -0.38026533998672724 145 98 82 0.46292640212198732 31 2297 37 3510 13 8995 14 6617
6070 -2.9139500142928534 -0.26331952289560001 5.2056060719149642 19 20 15 0.98245866769118795 6 3917 3 4314 5 4157 2 4312
21245 8.3201666308680089 -0.55905539741454002 -4.6065041018068253 193 190 175 0.26537662693734837 31 7021 36 3999 37 3568
6072 -0.4298934230389666 -0.14928953504506867 5.2420819198189088 172 183 185 0.27720751254744763 4 2088 3 4345 2 4334 1 4368
21246 7.8677644919608785 -1.7972790581228089 1.9148331647011088 132 80 66 0.17206315561326668 35 5005 37 3575 12 6551
6073 -0.42130486118316046 -0.14239873901382738 5.2403337417714457 121 126 125 0.33534021661581637 4 5318 3 4348 2 4336
21247 7.8609616392032056 -1.8580242721325675 2.2403228152868411 134 81 62 0.64178923921901243 29 6184 30 2462 37 3580
6074 -2.231443479699637 -0.15139306280198778 4.8084051601205893 159 161 156 0.20823513358841084 5 4180 3 4357 1 3538 25 986
21248 7.8512931171632419 -1.853435599992471 2.2302052419359057 134 81 62 1.333866262194499 29 6183 30 2461 37 3581 12 6562 13 8946
6075 -2.1310843007886575 -0.083669873505873099 5.1637428079543843 101 110 109 1.3714296324557598 7 8181 3 4381 6 7925
21249 8.2198328981869331 -0.82318994832043568 -3.0321289220436429 184 176 156 0.13968085249795589 31 5159 36 4018 37 3593 17 7533
6076 -2.1786552770556051 -0.055238429666594986 4.3706103680905724 76 42 20 0.22900611189240888 4 4214 3 4478 2 4424 1 3589 25 2440
21250 8.0439611241727231 -1.2173576736741045 -0.60409059812419341 180 176 151 0.69900705684362829 30 4994 37 3673 13 9126 29 8233
6077 -0.26473869850017717 -0.077186706860741083 4.0647203554547255 122 142 151 0.46987002211755408 4 4268 3 4487 2 4448
21251 8.1504570288226592 -0.92931498586988659 -2.0319535804874453 185 182 165 0.075788087124419479 31 5217 37 3698
6078 -0.60990254889798701 0.013309351379427299 3.9103041847874209 115 100 81 0.58353803027947304 4 4400 3 4597 2 4562
21252 7.8441015963426803 -1.7623617984026145 2.3486420669166246 174 170 153 1.2246618445022721 35 5140 36 6513 37 3714 12 6592 13 9031 13 10208
6079 -0.73902302493160232 0.016917437715749512 3.8987696591879848 123 110 93 0.47711192134123931 4 4406 3 4600 2 4570
21253 7.9650304827714544 -1.3818405926064328 0.3862580583236418 176 173 156 0.41657808652248446 30 5039 36 4065 37 3717
6080 -2.1235788614810933 0.14115329681206149 4.5230578549240121 113 89 52 0.21993504132143141 4 4395 3 4611 2 4566
21254 8.5333486957866178 0.057810416378094212 -7.0913666032170202 168 171 164 0.050079512102395488 36 4194 37 3726
6081 -2.1215408435965704 0.15208223426535861 4.4995137442206365 107 72 36 0.8993720722688815 5 4505 3 4627 2 4576 25 2516
21257 8.0405404990608798 -1.1708926001626696 -0.54286829912231105 184 177 161 0.33345394424415781 35 5130 37 3738 13 9146
6084 -3.0842325497152223 0.32712086750151509 5.1851941477783159 45 53 58 0.1746291651315254 4 2617 3 4658 2 2894
21258 7.6900643906319424 -2.0825027406798493 4.3255396151488688 161 161 153 0.20573226035310649 35 7957 36 4077 37 3758 12 5688 13 10200
6085 -0.59308114256646527 0.26791542293716519 4.8724940257063949 34 38 39 1.4298271194004355 5 6614 6 2453 3 4660 2 4624
21259 7.6754208639688484 -2.1152667169474739 4.5192741850079186 165 155 143 0.64721376706256484 33 3240 35 5263 37 3763 12 5701 13 10197
6086 0.60219640320749257 0.32561076659041549 5.1363989568523882 95 100 104 0.73373583646796481 4 4475 3 4663 2 2917
21260 8.3938076774102903 -0.22591242258419247 -5.3128225493833883 178 173 153 0.15420819639314579 35 5084 37 3772 16 3616
6087 -0.42660270983432536 0.33599718324764677 4.9227769809750317 37 42 41 0.61346616714626601 4 4488 3 4690 2 4645 1 3750
21261 8.3942066608438761 -0.21846567016069851 -5.3644096194610436 184 173 153 0.19976796518323894 35 5075 37 3774 16 3617
6088 0.47810621680821047 0.38561314406095026 4.8430632452698861 94 99 103 0.44071288116379487 4 2751 3 4722 6 4403
21262 7.8629297079838265 -2.0669997671062634 4.2224329822759818 45 45 37 0.02941227829709378 36 4099 37 3778
6089 -3.0722367578506957 0.4110062667979959 4.8950414332328984 44 48 47 0.47775302001126269 4 4514 3 4723 2 4663
21263 7.6295953210891989 -2.2607456848916936 5.3941922161512075 143 142 137 0.22798291093354028 36 4097 37 3805
6090 -1.6560612402038912 0.40358290776917904 4.8821658078846015 202 219 204 0.21730402996349982 4 4521 3 4724 2 2974
21264 7.6885900442340853 -2.0082411767816355 4.229553805211955 157 163 151 0.19493849613008246 29 3088 35 5306 36 4148 37 3814
6091 -1.6560612402038912 0.40358290776917904 4.8821658078846015 202 219 204 0.21730402996349982 4 4522 3 4725 2 2975
21265 7.8417666519053251 -1.6285660198947414 2.2670062510519289 173 173 163 0.32398753544796383 35 5279 37 3820 12 6628
6092 -0.86327384036803212 0.37372279964195271 4.769183335169429 81 94 97 0.8675908005004549 4 4527 3 4726 2 5734 1 5319
21266 7.8239479107589007 -1.6800005041510209 2.5725152738292474 180 175 169 0.72623369161129947 35 5292 37 3835 12 5667 13 9099
6093 -2.254381416542131 0.46456404705936272 4.5665700167073577 85 100 100 0.45321273074899832 4 4577 3 4763 2 4698
21267 8.4005878014163109 -0.17695076199262005 -5.2617533648170536 177 176 166 0.75797651323536996 31 8287 35 5151 37 3839
6094 -1.9591592833779474 0.47714120912779306 4.5529067167324584 85 87 86 0.14627238843019111 4 4582 3 4767 2 4702
21268 8.4540966222678851 -0.097293444277721242 -5.6282095913489609 26 24 21 0.83563399552734074 31 7118 37 3853
6095 -1.6330866938626092 0.47910533215999468 4.5382423220980002 83 89 87 0.070779533709809841 4 4587 3 4775 2 4713
21269 8.713663685429486 0.64952433763604678 -9.4753536903346252 100 70 59 0.17981231062802888 35 5097 37 3854
6096 -2.0866275167314119 0.48343097040211191 4.5178292656721117 109 117 119 0.6791035823011039 4 4592 3 4778 2 4712
21270 8.4017365960651524 -0.068410371753251292 -5.2682251630399897 134 100 88 0.92341263148603225 35 7968 37 3973 18 6541
6097 -2.169211148441446 0.48017694759125062 4.4736083415006549 76 94 106 0.70583412463221473 4 4597 3 4789 5 5737
21271 8.4143480865911506 -0.03743478897245215 -5.4371498156505256 141 88 70 0.9562980287383045 31 7166 35 5281 37 3975
6098 -1.622319304721515 0.48749159222433047 4.4900425595145466 85 89 90 0.38951363791440546 4 4604 3 4794 2 4728
21272 8.3624216336772559 -0.19747468407231761 -4.5158106965246727 139 86 71 0.00016823726664360645 36 6620 37 3985
6099 -2.1739267112616969 0.48765409057322201 4.4653045727996741 61 66 62 0.21675434323149087 4 4603 3 4797 2 4725
21273 8.0518784831871635 -0.98651536047004362 -0.36314320395895605 183 176 158 0.58899131737795019 29 8332 36 4379 37 3990
6100 -2.3344350596457653 0.49471266508075645 4.4581675236348204 82 92 95 0.39385420561247192 4 4610 3 4799 2 4730
21274 7.8432518841370795 -1.3937729771558673 2.1639074401597975 170 172 162 0.52268751601804153 30 2678 35 5549 37 4064 29 6328
6101 -2.2434995724689708 0.49484976806170156 4.4465985398507044 99 108 111 0.44035465883872948 4 5643 3 4800 2 4732 1 3819
21275 8.0871686514144887 -0.83401750228848914 -0.63848595680233067 135 79 62 0.44567391105780851 30 5153 37 4107
6102 -2.1575735226998374 0.49720593123794443 4.4499636661748001 75 79 80 0.26338200473780626 4 4616 3 4801 2 3079 1 2523
21276 8.4029287803315444 0.13131510239853114 -5.5936679755226963 24 23 19 0.46638250875764709 31 8342 37 4128
6103 -2.2023836237901451 0.50262559439415777 4.4162328271163265 73 77 76 0.25580293341906918 4 4621 3 4805 2 4739
21277 7.6848893662367539 -1.7651686600483938 4.4361342148443406 151 151 143 0.30095198338772949 35 5654 36 6629 37 4134
6104 -0.65474157822533718 0.267810941272904 3.7737267230059324 116 120 121 0.56435484220462973 4 4642 3 4806 2 4755
21278 8.0585734777128906 -0.77252981844908142 -0.63786619275719936 134 79 59 0.18038932264897986 30 6889 36 4540 37 4171
6105 -0.68934934782718826 0.26958764944789593 3.7762417372652992 114 120 121 0.62588184618071241 4 5665 3 4809 2 4753
21279 7.831857715966156 -1.3328821693087856 2.4522013442108443 112 84 81 0.65276868325892801 30 2737 35 5681 37 4193
6106 -2.3875521492651619 0.52166765630366818 4.3273852899878085 95 100 103 0.153455172515885 4 4660 3 4831 2 4760
21280 7.7974032770836166 -1.3893540502064479 2.7971766875825721 124 78 65 0.095011172041722269 30 2746 36 4545 37 4199
6107 -2.1240381546046669 0.53201809474912165 4.2957773414534559 121 132 136 1.873085822433544 4 4681 3 4844 2 4774
21281 8.4237901801507924 0.20990761803215408 -5.5588272597040902 175 177 167 0.92797198401410075 31 7247 36 4628 37 4208
6108 -2.1590883748002043 0.52966025689787533 4.2854616865656476 89 93 97 0.82579753049071825 4 2937 3 4846 2 3124
21282 8.0286270600742764 -0.82508749121101099 -0.054784439259830862 130 93 84 0.11737847295272448 35 5667 37 4210
6109 -0.82514632022050183 0.29253138406613977 3.659378680967651 148 92 42 0.39527981731858181 4 4726 3 4858 2 4785
21283 7.8580562823662783 -1.231887372913604 2.147122812712059 128 88 72 0.26684125077683196 35 5728 36 4592 37 4218
6110 -1.0811892436060444 0.29831324924302105 3.6126927334639651 181 177 162 0.2772285499986335 4 5726 3 4869 2 4792
21284 8.2438836763986725 -0.22201616643153177 -2.9800843333527984 180 173 155 0.32393364806950498 35 5669 36 4664 37 4251
6111 -0.71497362465692749 0.3053974410040714 3.6211627489644993 141 123 88 0.34680079228531108 4 4742 3 4873 5 4835
21285 7.7970557684018571 -1.2623776507416931 3.0024488514638712 158 154 139 0.22813064912294601 35 5823 36 4684 37 4300
6112 -1.938601284309202 0.57090468005910378 4.0904438482082268 112 117 120 0.47509609426806099 4 5751 3 4896 2 4807 1 3852
21286 7.9805718863885344 -0.79892554265508742 0.54018177374287579 175 176 168 0.25361743339062504 36 4697 37 4302
6113 -1.1004711120142934 0.58467303114922975 4.0236593671006489 49 53 52 0.81757211504522864 4 5770 3 4908 2 3182
21287 7.6427668865778671 -1.6158378449447606 5.1697681624670642 141 134 115 0.34945206436679327 36 4701 38 2636 37 4336
6114 -1.0309883250958021 0.59253427566116901 3.9801185831075525 82 92 88 0.35470315719590567 4 4787 3 4915 2 4828
21288 104.9045634741709 -9.5929371084766579 31.743533339762166 24 28 29 0.090571798536794645 34 3063 37 4373
6115 -1.294834339273321 0.61790412692811825 3.8550386762752513 81 87 87 0.31521990977939174 4 5804 3 4939 2 4855
