# 3D point list with one line of data per point:
#   POINT3D_ID, X, Y, Z, R, G, B, ERROR, TRACK[] as (IMAGE_ID, POINT2D_IDX)
# Number of points: 385, mean track length: 4.7760503831586361
6798 0.56492662296035934 -1.3314945076165532 6.9084347721341652 148 100 80 0.19427969323976171 4 1562 2 1881 8 1700
21969 7.865157972260965 -1.8435989869339977 3.8029785886095424 227 224 202 0.62844224326521814 34 2781 12 5749
6796 -2.2827056810835042 -1.4453776293821039 6.8526812225393323 130 131 126 0.11665135649094789 3 1675 2 1796 1 1551
21968 7.8510624318033022 -2.1485766223152218 4.9315084079527294 215 207 186 1.0656665428900165 35 5298 12 5748
6795 0.61889274004205352 -1.4801014891349955 6.8900493690251849 147 100 81 0.97025643206790768 3 1649 2 1758 1 1537 25 680 4 5093
21967 5.7599377399096969 -2.4824422510105251 6.838497474943428 205 204 194 0.80594952232366457 11 4841 12 5627
6794 -2.3859715389292622 -1.5478071374086972 6.8290261023331489 99 97 86 0.37957685289155552 3 1605 2 1716 1 1496
21966 7.860543376683923 -2.0757658610355567 3.5215901076021141 174 123 100 0.57041245677941632 37 3574 12 5618 13 8859
6793 -4.7789758893133127 -1.6615003689477423 6.7696422274054324 114 113 109 0.45285565408400236 3 1512 2 1640 1 1442
21965 7.9021795440163967 -1.7979638690231685 2.4349239073835887 188 130 108 1.0750218414341923 29 2870 12 5598 13 7621
6792 -4.2428602434067075 -1.7073952444587972 6.7646515169562846 175 178 171 0.20532498613669181 3 1483 2 1609 1 1423
21964 7.7242010678674564 -3.1976882674687275 6.7176239648580491 105 71 59 1.2737605983260416 11 6109 27 1006 38 1965 12 5548
6791 -2.8372226645190399 -1.7088920329840185 6.7912871444889671 196 197 183 0.41291129779934765 6 1171 2 1608 24 2191
21963 5.6478440354060568 -2.6406815068531144 6.8128825288305537 164 117 97 0.81059937653595426 11 4737 12 5522
6790 -4.239566904761034 -1.8462848670750813 6.737829076137035 172 173 165 0.39247044382600532 3 1366 2 1475
21962 7.8856433977246416 -2.3171479161992288 3.4063289267324408 173 129 105 0.87372374752068438 33 2928 12 5488 13 8701
6789 -2.626539782208817 -1.85865300429164 6.7679254284427488 60 42 30 0.1334562614293478 3 1368 2 1454 1 1320
21961 7.8634044949019275 -2.4276128305159954 3.3069847431335422 223 217 193 0.59154027716077362 35 4469 12 5426 13 8559
6788 -0.2379882346087015 -1.866431371802483 6.8081686060732514 187 183 154 0.1396534850488596 7 1198 2 1445
21960 6.794487351340992 0.41811155837936026 4.0999668992772413 126 128 125 1.2178772959519721 11 6996 12 5111 13 9907
6787 1.6148128283852217 -1.9661710792271545 7.0178676654678114 18 19 14 0.46322021299479016 5 1162 7 1142 2 1409 10 1487 9 1383
21959 6.794487351340992 0.41811155837936026 4.0999668992772413 126 128 125 1.2178772959519721 11 6997 12 5110 13 9906
6786 -4.4534241026419314 -1.925959447685863 6.7359711485743654 156 92 65 0.43092805381576005 3 3881 2 1397 1 1270
21958 7.5495647913306794 0.097341735116224043 4.7364567336798089 62 73 77 1.1785930867788617 11 6912 12 5037 13 10604
6785 -0.18297433757811332 -1.9260406425933361 6.8018991507599811 29 23 16 0.36714586825785855 6 1016 2 1386 1 1262 9 1280
21957 7.2420776749171809 -0.56849408193155049 4.5903962183263198 173 171 154 0.94208025007458418 11 6789 12 4855
6784 2.0984888618786224 -1.9351327049088611 6.8423184962626067 69 51 41 0.24123544535302174 5 1136 2 1367 8 1297
21956 7.0704946053144946 -0.78276868108017972 5.9684038164062114 44 49 55 0.72747833769360459 11 5448 35 8698 12 4825
6783 -0.37510419314764665 -1.9408835943416847 6.7960103625844539 143 100 83 0.20225041155932674 3 1285 2 1365 9 1255
21955 7.9951261732912693 -1.0766545139380432 6.4507360637943494 193 189 177 0.17871519577967102 11 5371 29 3777 12 4771
6782 -3.3399958651834329 -2.0412078803817613 6.9261592066911257 52 48 49 0.30212786551495247 4 1025 2 1338
21954 7.8583052895153278 -0.76579191780735789 4.2921617820116094 172 170 147 0.9987818000166877 36 5106 12 4761 13 7853
6781 -0.41795245898144168 -1.9716893704532046 6.7890651833484297 139 97 80 0.29565259696716056 3 1254 2 1336 1 1227
21953 7.4448412864182112 -1.1812038399815117 7.087580972638948 175 167 144 0.9443135722224637 27 2427 35 6497 12 4760
6780 1.2486945721115355 -2.0453452336792384 7.0103887774399984 23 20 18 0.46299497221539998 4 1089 5 1075 7 1061 2 1334 8 1248 9 1284 10 1399
21952 7.3877782844175899 -1.1783554447427935 7.0838458355820073 177 171 145 0.39966175998233827 27 2435 35 8636 12 4759
6779 -2.4898771885170432 -1.9823536958271939 6.7581860016177231 135 131 123 0.24834723713581475 7 1106 2 1328 8 1203 1 1225
21951 7.8557642845304558 -0.80246543107666191 4.4857056235817891 172 166 146 1.108818365385031 32 4935 12 4753 13 9431 11 6673
6778 2.1707699345478475 -1.9925218373882843 6.8389488424261051 55 36 29 0.59091860095717952 4 1087 2 1304 9 1297 8 1215
21950 7.5674008239484634 -0.80849002863249431 4.5539212487437517 147 140 112 0.97245080843171616 11 6671 35 6340 12 4749
6777 -2.7618204499935866 -2.0207026500996603 6.7410639308332438 75 53 39 0.61226743523261795 6 3459 2 1271 8 1163 1 1180 24 4089
21949 8.118956792252753 -1.2858899464275328 6.3844922999747968 136 138 135 1.1755377735371233 11 5286 35 6241 12 4701
6776 -1.8150931339764438 -2.0373359096452361 6.7494350942088692 148 103 82 0.24837322183379631 3 1147 2 1238 1 1167
21948 7.3310897635242531 -1.3949257931084267 7.0318970830969496 175 111 76 0.2062464759220656 28 2873 32 4768 12 4684
6775 -0.25488357841503767 -2.0509017594064121 6.7888714464724851 144 97 77 0.01674613669693362 7 999 2 1223
21947 7.8502150231381025 -0.9905401518214223 4.2995418911498762 152 93 63 0.87749306689714313 11 6585 12 4670 13 9348
6774 -4.2405644889735763 -2.1026944134551453 6.8043451493720655 148 150 137 0.21690580346642252 3 1095 2 1217
21946 7.8475091769039871 -1.0281532560230591 4.5278162961777682 147 93 67 0.27588650215057192 11 6591 12 4668 13 9346
6773 2.0688131624843686 -2.1633799933384905 6.9643149971156548 101 97 86 0.43147864236692568 4 965 5 951 2 1172
21945 7.8805479834036154 -1.0530474221858452 4.6574872783895769 146 96 73 0.66032006949617217 35 6131 12 4667
6772 0.76232835221304263 -2.1043820848295214 6.7834766761503307 186 185 166 0.3247973530281294 5 930 2 1165 1 1101
21944 7.3999626626705552 -1.452870081649549 7.0337849652388558 181 114 73 0.90144067252150428 11 5266 35 8444 12 4662
6771 -2.7301558669398123 -2.1339450056216451 6.7270565582593154 87 80 72 0.35751412978740676 3 1052 2 1135 1 1091
21943 7.6160549164111675 -1.0591325544023189 4.5010846333648136 163 105 80 0.92359203498469233 11 6571 12 4641 13 10358
6770 -2.2936992188411565 -2.2272041566765735 6.7134262420547097 194 195 183 0.13833869661961573 3 948 2 1035
21942 7.8829428299937172 -1.0028372056805512 4.0418511071047183 172 113 77 0.88559815895603677 11 6564 12 4639 13 9339
6769 -2.8453503699864524 -2.2481843110585289 6.6998928778612541 148 101 78 0.61052008857029638 5 734 2 1003 24 2056
21941 7.0906858765767602 -2.1935495716997675 7.093325311821018 162 147 124 0.41753925882144949 28 2265 32 4087 12 4523
6768 -2.3702259300444806 -2.2988695929577374 6.7007213258841007 192 198 184 0.17161579907525115 3 880 2 960 1 959
21940 7.5937342217640902 -2.2720702764362484 6.9109628533029408 210 200 178 0.38657620766643297 28 2139 12 4516 32 3998
6767 -4.2363517715590842 -2.3818084875029424 6.8253671358542798 83 80 65 0.85119046383473995 3 3728 2 944 1 957
21939 7.1437523662809745 -2.425391829504699 6.8665410345115081 220 216 205 0.3834481552576976 11 3087 12 4439
6766 0.21065602123220903 -2.3137235958462665 6.7442478496036191 197 199 196 0.18208453296063146 5 727 2 942 8 867
21938 7.0691486232120608 -2.412924797491192 6.8399503080164186 217 211 196 0.057610118536299229 11 4934 12 4434
6765 -2.6347513433800001 -2.3380920726869783 6.6985982849383019 195 182 165 0.17371214530133472 3 849 2 922 24 2015
21937 7.8489621174939987 -2.0831911034212647 4.8951439258880907 228 222 208 0.43161387247068889 32 3702 37 3849 12 4428
6764 -4.3935321862694341 -2.3476352712171238 6.6734627761162972 60 41 26 0.13650358896657258 3 814 2 921 1 934
21936 7.8308518429373972 -2.4526447241708214 6.1613932271755836 184 115 83 0.16749180906852262 11 4875 12 4413
6763 0.065766882656326631 -2.3578321060456475 6.7305017963510263 90 85 76 0.53857028150712927 3 857 2 894 1 906
21935 7.8187022362879173 -2.5039651778659771 6.3584266275040973 178 117 88 0.73769724808844295 32 3656 35 5231 12 4412
6762 -0.070141933236720258 -2.4496318072972172 6.7134673673031537 199 197 182 0.12307549050070962 3 758 2 784
21934 7.822253637524204 -2.478230713860273 5.6369138058162784 67 39 27 0.89206608417458855 11 4776 27 1200 12 4339
6761 -2.5848176774725244 -2.4472397593780681 6.6676116940476575 82 50 31 0.014960000783298054 3 721 2 783
21933 7.8469549438732669 -2.5265368674470849 5.7784821184289958 165 129 109 0.7481661173885682 11 4784 27 1206 12 4338
6760 0.62896983352616365 -2.4635718258704404 6.7281617587584064 43 29 17 0.33851025319503031 3 755 2 771 1 799
21932 7.8476089145888563 -2.0687774526410285 4.1293057971383327 194 145 120 0.73282578362814499 28 1533 12 4335 13 7599
6759 -4.4934881289219923 -2.4979340146720408 6.6273686745839111 69 46 38 0.18320842333725751 3 3632 2 720 1 795
21931 7.8534482710571787 -2.1234817933114103 4.1521092004655529 187 125 100 1.0026053917772106 28 1499 12 4313 13 8897
6758 -4.3495710676919259 -2.5084374155404494 6.6440300818858509 45 31 23 0.24779892392006964 3 3634 2 709 1 789
21930 7.8450440304986468 -2.3772487350256126 4.3238063458612768 223 213 187 0.59725076518923581 35 4866 12 4234 13 8743
6757 -2.0310442303371588 -2.5099196241518404 6.6603249119876935 148 101 85 0.2611266634742555 3 631 2 686 1 747
21929 7.857657010415199 -2.3743593109825487 4.2849550968006351 227 213 187 0.45720603563836359 36 3731 12 4231 13 8744
6756 -2.5808859968013644 -2.5512690150957065 6.6489560418568034 76 50 39 0.36131259480762645 3 545 2 646 1 681 24 1909
21928 7.8157519236628437 -3.193297078789076 6.547150971924399 176 132 107 0.38010002641101365 28 1355 12 4177 32 5879
6755 -2.6470110874464168 -2.5624635083139444 6.6647243071846098 84 45 28 0.14687578915966984 3 540 2 631 1 668
21927 7.8242748343332194 -2.9989612837908619 5.721067467771114 176 127 105 0.38158441297264067 11 4512 32 3016 12 4143
6754 -4.3965142776624324 -2.5677842415911529 6.6415239744333494 56 39 30 0.35960245662520657 3 3594 2 624 1 696
21926 7.8308183566081127 -3.1003656961758561 5.9708459050490443 178 124 98 0.37109273582412167 11 4527 27 839 12 4130
6753 -4.3965142776624324 -2.5677842415911529 6.6415239744333494 56 39 30 0.35960245662520657 3 3593 2 623 1 695
21925 7.8308183566081127 -3.1003656961758561 5.9708459050490443 178 124 98 0.37109273582412167 11 4526 27 838 12 4129
6752 -1.7419026262148993 -2.5657708893115845 6.6643830617166984 78 54 44 0.053019355261416413 3 549 2 611 1 2933
21924 7.8481987812507752 -2.5775380724576928 4.1893914470887221 229 226 207 0.30989870688383986 35 4535 36 3474 12 4099
6751 -4.2144679199279871 -2.5611698927314692 6.615529439714372 109 84 74 0.48942586826981022 3 496 2 609 1 677
21923 7.8232928971192406 -3.3371034967959212 6.3790984437522669 206 201 182 0.5379821057304478 11 2607 32 2871 12 4078
6750 -2.2353761517544632 -2.6089035986494293 6.6499238938216783 55 38 28 0.090407533814363714 3 475 2 559 1 601
21922 7.8562495739764007 -2.5468210089222012 4.0004006544882307 224 216 197 0.39458943443407585 35 4522 12 4075 13 8530
6749 -4.1294806447345085 -2.6128399243015799 6.6178346950190754 132 91 79 0.42849224559780841 3 420 2 551 1 609
21921 7.8310790406761157 -2.9791932243697588 5.2723810051739521 167 138 120 1.2635946500350776 28 1111 35 4226 12 4071
6748 -1.6502510478372132 -2.6172778687116107 6.6577704194238159 63 37 25 0.10012422016797635 3 476 2 546 1 585
21920 7.8446438995116372 -2.5169815732106011 3.8524220330436032 223 202 185 1.260196056287223 28 1028 12 4059 13 8538
6747 -4.2937525796530904 -2.6180198371401828 6.5985767188140816 119 90 79 0.51223623374758653 3 387 2 518 1 596 24 2062
21919 5.9023915316616273 -2.8684381940101273 6.7656823376096273 155 112 95 1.2118298886813212 11 2753 12 4043
6746 0.99804065093824312 -2.6348923940634394 6.7034540109502876 140 97 80 0.81506885971364185 3 513 2 514 1 2864
21918 7.8772068426424244 -3.1469687061546407 5.5510640206196156 0 0 0 1.7099739213440219 28 1086 37 2815
6745 -2.3799788025161042 -2.631966614626474 6.6419553130395048 111 109 107 0.061034934649881134 5 255 2 509 1 569
21917 5.6325519213222002 -2.8381520384973102 6.8591202152235553 204 196 182 0.98731531435979514 11 4653 12 4027
6744 -2.8602155815078616 -2.6387398046263093 6.6463101693812341 64 47 37 0.38032233997592452 3 421 2 508 1 574
21916 7.4448993009581157 -3.445856147063739 6.6923293379870668 215 212 199 0.3979818994815611 28 1182 12 4001 32 2851
6743 0.73363116244183113 -2.6384400813954851 6.6964164646456616 145 107 91 0.19878186357069044 7 332 2 504 8 402 1 528
21915 7.8416010307417663 -3.2004308162294475 5.5584461302164208 213 211 188 0.5158566665970904 11 4301 28 1064 12 3992
6742 -2.8143588982804681 -2.6370900371963364 6.6370311972723917 74 46 35 0.39262278293453673 4 333 2 501 24 1907
21914 7.2840748513098932 -3.4464587212292179 6.6957093546004938 209 205 178 0.4375056020280878 28 1188 12 3966 32 2849
6741 -1.8104140356390372 -2.6471434131691169 6.6457656665083089 144 91 77 0.20176464147138384 3 422 2 489 1 534
21913 7.8469480724130589 -2.707307090744262 3.9655247462714431 184 136 114 0.78385991756439932 28 979 32 2482 12 3946
6740 -3.1206800636467436 -2.6621976613835003 6.6397437875970642 67 40 29 0.09174228359623364 3 363 2 484
21912 7.8506685711692219 -2.8011977350889721 4.198790336495553 184 140 127 1.3785835741909789 32 2466 35 4156 12 3942
6739 -1.5565560725893406 -2.6590544360590522 6.6523530051180222 69 43 30 0.13239772451901063 3 406 2 480 1 522
21911 7.1881026628869646 -3.448541621468991 6.6982375658033311 218 207 189 0.79945714560883807 28 1193 32 2840 12 3939
6738 -1.9854164567300998 -2.6645150195911667 6.6445663955318093 68 53 36 0.28912173801631957 3 385 2 477 8 397
21910 7.8398925974011568 -3.0967982223640131 4.968808556411175 223 219 207 0.50114359384518326 28 1007 36 2674 12 3913
6737 -4.2495848487456049 -2.6655348560301166 6.6161393730177078 110 104 98 0.14762286768729033 3 3512 2 473 1 542
21909 7.5832344336818043 -3.6664897028823193 6.6726871283395246 207 203 194 1.1306753183006661 28 1081 12 3875 32 2521
6736 -3.1216737671804369 -2.6728679444176611 6.6297912854919803 149 96 78 0.69492819251968607 3 3519 4 268 2 461 1 523
21908 7.8223341772561694 -3.6973396771374425 6.2635461358567062 170 110 82 0.0065152314283647055 11 2437 12 3828
6735 -2.5260301187509739 -2.6766717575704559 6.6377598264809423 195 197 189 0.30904224075690195 3 356 2 455 1 513
21907 6.6747216369497853 -3.4411453699401018 6.6782057363697556 205 187 167 0.53833483553380734 32 2805 12 3799 28 1205
6734 -1.9882229294991816 -2.7197793923860649 6.6336645275479409 127 110 90 0.22893608607664281 3 291 2 406 1 446
21906 6.5978311137828269 0.44256082718749939 3.9802709554688991 128 131 126 1.9637277179610899 11 5709 12 3588 13 8344
6733 0.86290686770165081 -2.7400286078606872 6.6922724725489608 65 40 28 0.049558788067430554 3 352 2 380
21905 6.1253502223900345 0.17583615016958357 3.4784483168608347 142 33 36 1.747873765904367 12 3557 13 8261
6732 -3.758982248785554 -2.7441118652738599 6.6216037666585015 62 38 27 0.37318785781114022 3 3473 2 366 1 444
21904 7.3932910449940659 -0.081439897712885137 6.0763557707880054 18 22 18 0.51047012376470569 11 3793 35 6850 12 3484
6731 -3.5458901554184692 -2.744318489815742 6.6104914143943665 66 38 26 0.14076362720772864 4 3231 2 349 1 432
21903 7.56044845516303 0.026818095974548657 4.6959187164323746 141 150 147 0.49494619162732606 11 5616 12 3481 13 8162
6730 -3.29527408893949 -2.763068836801164 6.6025971537917192 104 69 57 1.4963040709568398 3 189 2 312 1 394 24 1929
21902 7.56044845516303 0.026818095974548657 4.6959187164323746 141 150 147 0.49494619162732606 11 5615 12 3480 13 8163
6729 0.22418938179210712 -2.7803744402479462 6.6629936622904538 64 42 19 0.42418785909721068 6 3062 2 299 8 190 7 136 1 334
21901 6.9918037373056254 -0.45232122826065413 3.8279844162750138 180 174 148 1.9990663082924633 11 5505 12 3299 13 7931
6728 -1.7600881024030697 -2.7803926216660084 6.6266261706219955 189 199 190 0.59861680844847565 4 3237 2 295 1 355
21900 7.1932858084153146 -0.56597565726864185 4.6121466399199837 109 125 125 0.6445984168436012 11 5490 12 3291 13 9595
6727 -2.5259923083258808 -2.7821975127660199 6.6183478866167249 193 196 189 0.15833940084737272 3 186 2 292 1 363
21899 7.8144318074063541 -1.1840902411282013 6.7403449431708369 137 129 106 0.40174072425963608 11 3494 28 3039 12 3178
6726 -1.4005267895875928 -2.8164878470005075 6.6243932724945536 148 97 80 0.27860785086279144 6 17 2 259 1 284
21898 7.1025616652584 -1.2999355111321309 7.5858786226704735 43 48 49 0.31742621090967893 11 3499 12 3175
6725 -2.3408995562881021 -2.8177431435383036 6.6082699751218783 62 43 28 0.20450681558114656 3 131 2 257 1 299
21897 7.0470363973946091 -1.478496945695654 7.3075893807513443 125 135 136 0.9623326956490128 11 3418 12 3096
6724 0.07749120879129015 -2.8240573556580362 6.6509550443354266 184 178 162 0.29004113563288925 3 187 2 253 8 123 1 252
21896 7.8380055866030904 -2.3324391325629414 6.3067300220172271 211 195 166 0.33105321276866145 11 3083 35 5426 12 2809
6723 -3.3523991932361588 -2.8268280217471515 6.6076801590687424 69 50 37 0.083620925735398088 3 102 2 251 1 320
21895 7.9978790920678771 -2.3806475301864918 6.2363180121150519 114 98 75 0.20585062158217932 11 3062 12 2789
6722 -3.7877323580166746 -2.8235070148790915 6.588708764477845 64 36 25 0.15559919164104438 3 3405 2 239 1 319
21894 7.8433128994139327 -2.402157216889246 6.2157500597401052 66 47 36 0.044194762605839648 11 3046 12 2762
6721 -0.52090266022142651 -2.8302340605686154 6.6400545670492628 58 38 29 0.30300517750672779 5 21 2 224 1 249
21893 7.8226044054972306 -3.2579075706091793 5.9384228820965896 211 200 178 0.61980909978961851 11 2550 35 4002 12 2329
6720 -1.9004146604204675 -2.8272955627284024 6.6168759638271082 84 50 31 0.20891836439412273 3 3428 2 220 1 271
21892 7.821626506118883 -3.5074229259396117 6.1082333960527988 204 197 173 0.64214873805153749 11 2477 35 3511 12 2235
6719 -3.4606969293061218 -2.836771818939015 6.5998582869537552 64 44 35 0.21724166207915196 3 3403 2 207 1 291
21891 6.2406971787107226 0.49270920476282587 3.8396000921726174 170 173 172 2.2285160542719455 11 4038 12 1952 13 7441
6718 -2.022176836101087 -2.8353880843079833 6.6097245498735564 151 108 93 0.52664570719591441 7 152 2 199 8 144 1 258
21889 6.7853997063318472 0.22716295078988533 4.7486668503477834 122 136 143 0.6642181291436684 11 3887 12 1864 13 8291
6716 -3.6035447528669176 -2.8446743382679442 6.5954594484622033 67 44 33 0.19404072318875346 3 55 2 190 1 275
21887 7.8463247892430861 -0.56295033666608296 6.5315396620673649 161 167 163 0.18516183225415003 11 1730 35 6723 12 1627
6714 -3.0976845871163294 -2.8559800834627667 6.6049241427871381 67 42 32 0.31091947109400803 3 56 2 183 1 254
21886 5.7627721973990802 -0.79811171500433942 7.1128443604558118 156 110 92 0.93540847490969459 9 4327 10 2335 12 1582
6713 -3.0938200935186528 -2.8631388965476776 6.5929356662520959 151 96 76 0.32170459588967137 3 31 2 171 1 236
21878 8.0236580302528679 -1.8300283674036093 3.7920191288876484 130 125 96 0.52273370003306352 11 2872 12 788 13 4682
6705 -1.4658618927553726 -2.8816623619547488 6.6125645154424406 67 58 43 0.33805606822586376 3 48 2 152 8 46 1 178
21877 7.0300861281015417 -2.5364266234764421 6.8597426328702324 64 40 30 0.67283031858757747 11 3035 12 714
6704 0.91991068914869389 -2.896525643453856 6.6558269519288764 64 44 26 0.28072547468090409 3 106 2 137 10 56
21872 8.0132709570944751 -0.89193878025856033 -5.1650268319205042 101 60 42 1.2016103657860926 35 14327 37 11913
6699 4.0971011908800135 -1.382797231115781 7.1902301448501342 0 0 0 0.21805920781054286 5 3881 6 3663 7 5167
21870 24.483533596464504 -15.096948988813846 14.002576494762986 0 0 0 2.084163988889113 35 12704 38 8473
6697 0.025944277982210804 -2.7778425890929137 6.6590860500901528 59 41 22 0.40694997287597118 4 215 5 132 3 253 7 150 6 65 2 301 8 192 1 341 9 138 10 216
21865 8.2350128731829741 -0.99095605082488347 -2.3397899762901169 17 19 18 0.53813546886484587 36 11467 37 3563
6692 2.3873426722692508 -2.3313629304221513 6.7826812587513894 180 176 160 0.526814106886899 4 7210 5 7203 3 7318 7 8570 6 8341 2 7193 8 7125 9 7263 10 7547 32 3683 34 2605 30 2521
21864 7.8674226164722985 -2.8241247067546715 1.6772146920136686 197 194 178 0.7334519247643615 29 5825 30 1734 31 1712 37 1829 35 2818 36 1775
6691 0.98473700952863674 -0.34454477815183204 5.6106701964888588 135 190 247 1.1485485372313202 4 5258 3 5427 5 4153 6 5149 8 5491 9 5541
21863 7.85695461520063 -2.8867110436461649 2.0675674877706229 191 189 176 0.95930878856681778 30 1790 31 1741 37 1857 35 2868 36 1795
6690 -0.19125389393148334 -0.00400752138139082 3.9046527089703469 108 89 75 0.37996068756443296 4 4393 7 4440 3 4588 5 4481 6 4266
21862 7.8424403893480452 -3.1545424156523896 4.3588908401366089 142 135 107 0.25523313832033984 32 5799 38 1335 37 2303 35 3461 36 2235
6689 -0.067628234216674868 -0.016928160722315299 3.9060565515864965 91 73 59 0.39187190739118644 4 5484 7 5551 3 5604 5 5569 6 5354
21857 7.8279778641502071 -2.6987645082591207 4.9355679129865031 162 165 160 0.73438640538375433 27 822 28 1186 32 3079 37 3255 11 4445 35 4608 36 3485 12 4168
6684 -0.39184002180744909 0.45355829474899867 4.5114150945643106 30 31 27 0.84184282631943108 4 2825 7 2770 3 3105 5 2848 6 2648
21854 7.8476047014148609 -2.6936036981783911 4.5362830306323465 170 168 156 0.55041866534192907 11 5890 35 4455 36 3341 37 3139 28 4626 32 5858 38 1700 12 5485
6681 -0.89022495601397511 -0.11682271145042791 5.5889692502149551 73 107 154 2.0330990283676544 4 9380 3 9516 5 9249 6 8969 8 9294 7 9554
21853 7.843393032572048 -2.4521284478967003 4.4228641215922719 167 166 157 1.3593217986207278 28 4644 32 5894 38 1919 29 2868 37 3401 33 3010 36 3666 12 5573 13 10100
6680 -0.033673277864600316 -0.08362630359881984 4.0264533994919383 129 149 158 0.33951521885012992 4 4273 7 4322 3 4497 5 4333 6 4140
21852 7.8730614809859709 -1.922907940719387 1.9716036566056021 195 195 184 0.77154912265670472 29 6142 30 2405 31 2311 37 3420 35 4811 36 3775
6679 -2.2367554060548533 -0.95428138636601256 6.9247409380807516 43 43 42 1.5366728047563911 4 9323 6 8921 3 9454 4 8992 7 8889 6 8613 2 8978 8 8867 1 7763 33 5550 28 5036 28 6427 32 4677
21851 7.8303256033918025 -3.2330261788769459 4.1431594142446428 172 172 158 0.57749516438113946 28 4538 32 5778 38 1280 29 2275 37 2016 33 2422 35 3096
6678 -2.6592638726944049 -1.7224048331418336 6.7895218780895199 170 167 160 0.51395716699486638 4 8864 6 8484 5 8768 3 8996 4 7592 7 7501 6 7237 2 7659 8 7493 1 6367 25 6642 33 3376 27 2151 28 2762 32 4001 38 2965 26 5604
21848 7.8414149804407387 -2.9741326118170384 4.5939687066846568 143 140 131 1.1264557367761461 32 5835 38 1413 37 2756 35 4005 36 2791 12 5383
6675 2.1462719742752214 -1.5308049595896323 6.9179765110958344 172 168 155 1.3445068354480005 7 7625 6 7374 5 7725 4 7783 3 7894 7 8797 6 8528 2 7788 8 7643 33 3704 27 2232 9 7802 28 2856 8 8785 32 4386 38 3040 30 2857
21844 7.8456760213253744 -1.982440137329798 4.6518833766497849 165 166 158 0.61709947594998726 11 6224 35 5430 37 3911 28 4689 32 5999 38 2325 29 3179 36 6571 12 5788 13 9044
6671 0.57083379171847293 -1.685536432866112 6.8442607654217715 175 182 192 1.5128428807691829 5 10183 3 10481 33 9389 28 9933 32 10974
21824 7.8956190009032703 -0.3266158543807165 1.6402759214185383 134 139 125 0.73787067331932354 29 6626 30 3162 31 2928 37 4637 35 6210 36 5046
6651 -1.9815693530376581 0.4740090683517757 4.4666743306377139 103 108 111 0.31279722399902471 4 10018 3 10171 2 9922
21816 7.9130046330850545 -0.41717199626362372 1.828604358809635 127 125 105 1.2392843126572295 29 6603 30 3115 31 2889 37 4594 35 6176 36 5006 13 9445 12 6089
6643 -0.44673965951876671 -2.3387935665615722 6.9112253732727931 22 20 20 1.6276795654365266 3 10072 2 9835 1 8369
21802 7.882952203091615 -2.3456221757627045 1.7990332007794447 156 102 77 0.25149227570782057 29 2235 30 2147 31 2073 37 2878 35 4060 36 3030
6629 -1.6153226558012743 -2.8452688445653189 6.6204096099851597 106 74 65 0.86234452744675394 7 9636 3 9868 2 9673 8 9648
21798 7.8664114234652454 -2.4630496967232864 2.5072744301109018 157 109 87 0.4067568805530179 29 2363 30 2216 31 2118 37 2907 35 4124 36 3047
6625 0.21356904108739674 0.19016315009859783 4.567466402878579 148 163 170 0.10124226042378581 3 9826 2 9631
21791 7.8826641399576518 -1.889750115944949 1.7755146290353125 196 194 184 0.51316561302935859 29 6129 30 2393 31 2306 37 3422 35 4800 36 3777
6618 -0.88868110737644346 -0.93837285109290636 5.825701356912389 163 181 195 1.1825262653322874 4 9619 3 9752 2 9541 33 6476 27 5440 32 6116 38 4827 26 7596
21790 7.8892562343946224 -0.36354027463756811 1.8408011418385346 138 140 125 1.0540376693759488 29 6630 31 2919 30 3157 37 4632 35 6222 36 5054 13 7862
6617 -0.88884984808947054 -0.939952850238991 5.8285219782581867 163 181 195 1.1086769582987175 5 9474 3 9751 4 9618 27 5441 28 6397 26 7597
21762 7.7268175370560064 -0.23548626579029472 1.6583880042309656 0 0 0 2.0429662672977438 30 10186 36 12355
6589 1.6210601718129976 -0.80219173975806624 7.0260226165784978 141 155 163 0.29869734858680669 4 9338 3 9473 2 9281
21758 8.1276126757079599 0.20869650169377674 -8.3262790641642805 107 71 58 0.30321762739689662 36 12279 37 11922
6585 2.0537771288077331 -1.8178776163492139 7.0682365745271305 35 32 32 2.2450801299606877 5 9121 3 9379 8 8719 33 5353 38 4720 34 6859
21748 7.9429603653090615 0.93046526262532048 -3.4145688378188002 37 38 39 1.1166878499168005 31 10390 36 12067 37 11729
21746 7.954800689361833 0.27416919601758982 -3.0662547847946642 56 36 29 1.4072205821703525 31 10372 36 11864 37 11720
6573 -0.63219409524675685 -0.31528452997861484 5.6418323622830755 211 222 226 0.9996676303393669 4 9042 3 9177 2 9018 1 6991 25 7524 25 7927
21733 8.3349358794763866 -9.070393114506599 -8.6547165339345913 199 229 239 0.054864267052058435 36 11699 37 11377
6560 -4.2549614780671661 -1.5067079290372749 6.796114442620893 159 159 151 0.34928028106148268 4 8908 3 9046 2 8919 1 6516 25 6756 27 2395 28 3049 32 4117 24 7600
21732 7.3245278168344665 -12.77052211156213 5.114036756793281 0 0 0 1.561221313441252 29 10883 35 13059 34 8197
6559 -4.3033995018965863 -1.5075845299824155 6.8024778388830969 160 158 150 0.57580710017686343 4 8907 3 9045 2 8918 1 6515 25 6755 33 5329 27 2402 28 3048 32 4116 26 5729 24 7602
21718 8.0712665283633775 -1.1446466533804569 -1.1899548992140789 14 16 14 0.13912979419977389 36 11470 37 11130
6545 -2.3154372293916725 -2.2071162663280135 6.7005621032586555 184 185 179 1.3456426641318158 4 8747 3 8886 25 6424 33 5166 32 3551 38 2644 26 5448
21705 7.9595890061901091 -9.7323949892758463 -8.720389622280166 196 222 236 1.6468392202870408 36 10594 37 10800
6532 0.60894828740120266 -2.8167908499869236 6.663152334501663 185 185 175 0.49472644607306798 4 8601 3 8724 2 8582 1 7194 10 8865 33 2815 28 1866 32 3166 34 4967
21698 122.29512356496363 -84.795007111101953 -7.7902265900483973 43 42 47 0.35404224394474437 34 8229 37 10385
6525 -0.068285172976810013 -2.8127897936506732 6.6577790104745667 184 177 161 1.0490088035233902 4 8593 3 8717 2 8588 8 8411 1 7201 33 2760 27 1377 28 1887 32 3138 38 2247
21677 8.0175842684541685 -9.5206333590329137 -8.9574428318353441 198 200 189 1.1245560204726699 36 10608 37 9512
6504 0.18498955377865306 0.2425678527543908 3.6775120212196235 14 83 65 0.50820952255529106 4 8511 5 8436 3 8605
21656 8.019339506803874 -0.82332621909800263 -4.5114569004322238 155 99 74 0.96367903824547418 31 9857 36 10293 37 9050
6483 -1.9814226315376153 -0.81873684531478574 6.9692388168482351 109 105 94 0.62195161011691447 4 8263 3 8380 2 8288 1 6921 25 7148 33 4081 27 2944 28 3667 32 4793 38 3652 26 5984
21636 6.8939298824083348 0.51592546437957387 2.2789257281336597 82 89 92 0.50403886882254911 36 8410 37 8137
6463 -0.04758339008394321 -1.1490976051101531 6.936408410042235 179 181 159 0.48308998758380511 4 8069 3 8176 2 8095 1 6738 25 6949 10 8336 9 8049 33 3882 34 6965
21625 8.1232550653757709 -2.4396862536316557 5.7565752925309583 36 38 35 1.1573303285442671 36 6497 38 5957 37 7841
6452 -4.2543878942717663 -1.3489691155105281 6.8308775095744316 116 70 55 0.17935386377500334 4 7856 3 8013 2 7920 1 6599 25 5172
21624 7.8622706036574552 -2.5394457370066346 5.7944156642911722 91 59 52 0.23578868152080892 36 9398 37 7827
6451 0.62534508373528952 -1.3743957418398731 6.9304752502553599 130 77 57 1.4286778692514688 4 6156 3 7991 2 7901 8 7733 1 6583 34 5446
21623 7.9418036057981736 -1.5403135165868267 -1.7547312308807008 116 78 70 1.5574347686761896 34 6649 36 6402 37 7795 14 8002
6450 0.62558208880097077 -1.3755657390347162 6.9327243345333942 130 77 57 1.6893469381244179 4 6157 3 7990 2 7900 8 7732 1 6582 25 6803 34 5445
21608 8.2552575492367488 -9.2601008178548696 -8.1384075309794692 198 230 241 0.51492626924304241 36 5916 37 7217
6435 -4.366468724947187 -1.6198101284715916 6.7851407298982531 155 158 147 0.94365602321886188 4 7638 3 7779 2 7692 1 6406 25 6705 27 2289 28 2909 32 4013 38 3098 33 5283 26 5681 24 7585
17493 7.9226886205636706 -2.0348853449885711 0.58880070419195252 204 198 176 0.41390600742817052 29 5932 31 2068 36 3220 35 4163 37 2974
17492 7.8930256662127887 -2.3124714946012426 1.6113753174271332 173 116 86 1.4402535656280091 29 2205 30 2126 31 2060 37 2867
17491 7.8541037504553257 -2.7446345248372905 3.226728002506686 200 195 177 0.27081234479789495 29 2356 30 2194 31 2059
17490 6.1973126908704881 -3.3283572922308267 6.6948856298161372 181 176 156 0.17041282140668859 28 1336 32 2932 31 2042
17489 7.9404175499474512 -1.5508852774039343 -1.3311320369515149 159 112 86 0.85657818529551355 29 5768 31 2040 13 8765 14 5056
17488 7.9285832659905662 -1.8232090437496127 -0.33483833472931779 205 200 180 0.30833837780103118 29 5855 31 2037 13 8668
17487 7.8972510236428288 -2.2696936958500307 1.3273606063466092 162 114 91 0.51003099891095072 29 2143 31 2035 35 4027 36 2991 37 2843
17486 7.8604844235603855 -2.9654023609958786 3.8268584576670008 196 198 185 0.20135801385323937 29 2374 30 2183 31 2021
17485 7.8912191110876639 -2.3699641186852167 1.6106633782368549 161 116 93 0.368947763142429 29 2161 30 2092 31 2015 35 3949 36 2901 37 2773
17484 7.8912191110876639 -2.3699641186852167 1.6106633782368549 161 116 93 0.368947763142429 29 2160 30 2091 31 2014 35 3950 36 2902 37 2772
17483 7.8417545349356725 -2.6348725569787654 2.6094784211090509 200 202 189 1.4870800522278138 29 2267 30 2134 31 2013 37 2648 38 4583
17480 7.8456623544748165 -2.9231781794728517 3.6086769043968689 195 199 185 0.2675032732977114 29 2336 30 2168 31 2006
17479 7.9356959915167424 -1.6086325549177931 -1.2881066590560029 205 181 157 0.67735284578790367 29 5749 31 1996 35 4208
17478 7.9009523773952672 -2.1826884897325027 0.82198737689823098 170 116 88 0.63154373156453414 29 2063 30 2005 31 1993 36 2982 35 3992 37 2820
17477 7.9086413585776967 -2.6220541611507571 2.3955491441487133 205 206 190 0.24491942779032461 29 2211 30 2105 31 1992
17476 7.8594609629714629 -2.898326290659103 3.418610233854924 202 200 187 0.19033475860715751 29 2304 30 2145 31 1989
17475 7.9341480539653304 -1.7469044421409976 -0.8243506295840991 206 200 175 0.62022564392572899 29 5797 31 1985 13 8683 14 4906
17474 7.8628223544072418 -2.5761630273399008 2.2209314879105486 205 198 181 0.42273595635969913 29 2191 30 2090 31 1981
17473 7.853282207800123 -2.876485826105954 3.3064773132606997 196 196 183 0.20031682121393027 29 2292 30 2133 31 1978
17472 7.8944299178179484 -2.5779408750846571 2.1690220160991966 207 208 194 0.22296889173283974 29 2175 30 2085 31 1974
17471 7.9291444953316184 -2.3000556911214458 1.1132200847319103 167 119 94 0.17292385007099073 30 1997 31 1970 29 2071
17470 7.9291444953316184 -2.3000556911214458 1.1132200847319103 167 119 94 0.17292385007099073 29 2070 30 1996 31 1969
17469 7.9366208025820333 -2.2871256589647411 1.0235483669925431 160 111 88 0.2449702913245273 30 1982 31 1958 29 2054
17468 7.8600753188677528 -2.830178437700281 3.0153623407092041 203 200 185 0.1429483757968579 30 2104 31 1956 29 2240
17467 7.9156014830355748 -2.1048761692349145 0.34228030708282636 173 109 79 0.57924133654256105 29 5861 31 1948 37 2794
17466 7.9216432181218233 -2.5230104987394255 1.7936726175371327 204 204 194 0.90564447788178448 30 2024 31 1946 29 2108
17465 7.9047080735957289 -2.0875864154610659 0.25654596803444657 167 111 84 0.68882041769030367 30 1899 31 1944 35 3938 34 2352
17464 7.8572473862380852 -2.774336956276013 2.7034266814295016 201 204 187 0.24413263023675766 29 2188 30 2075 31 1938
17463 7.912005662120448 -2.0696009592674711 0.1371049267222437 170 116 88 0.96000616559337648 29 5842 31 1935 36 2949 35 3925 37 2774
17462 7.9466902481507837 -1.6598844034803091 -1.3480005428073418 193 185 162 0.88439230621132725 29 5701 31 1931 36 3259 13 8704
17461 7.8596884001043383 -2.7581931667358366 2.6099529473007976 201 194 176 0.29325542955467426 30 2063 31 1928 29 2172 37 2401
17459 7.8729359046462806 -2.7333762879951715 2.4254877539267938 207 204 189 0.17335057101347001 29 5967 31 1913
17458 7.944065454985771 -1.6150977183618935 -1.6031738171696375 202 194 175 1.4398983200997362 30 4716 31 1906 35 4092 36 3245 13 8711 14 5016
17457 7.861787416430194 -2.6916784015436268 2.2134914109769337 207 201 189 0.12985534791214501 29 5943 31 1899
17456 7.9110640205002793 -2.3932950081938449 1.0826306181882286 211 197 176 0.77647370924581149 29 5874 30 1898 31 1894 29 2016 35 3640 36 2683 37 2548
17455 7.8807142650398525 -2.6847581289985567 2.1284011710669808 204 205 191 0.24203854944674533 29 5931 31 1893 30 4826
17454 7.9135191810425214 -2.1184072786863255 0.081602870953624035 166 114 93 0.49983242411728818 29 5816 31 1888 36 2859
17453 7.9162197277464896 -2.1195674114846215 0.083583501440133018 166 114 93 0.45145504228753019 29 5815 31 1887 35 3787 36 2858
17452 7.8635698867470465 -2.5006976013025359 1.4546737257304085 206 207 193 0.33315851454212225 30 1918 31 1886 29 2041
17451 7.8658070850391493 -2.9179242326941659 2.9158646449105827 202 203 195 0.24026296651394694 29 2148 30 2023 31 1884
17450 7.9213249346275472 -2.1075727240426563 0.013606806082027623 168 111 84 0.57841541452199208 29 5810 31 1880 35 3789 36 2860 37 2666
17449 7.9213249346275472 -2.1075727240426563 0.013606806082027623 168 111 84 0.57841541452199208 29 5809 31 1879 35 3788 36 2861 37 2667
17448 7.8551452793229668 -2.4595006177053498 1.2413182262311913 202 201 185 0.50968846423028324 30 1890 31 1870 29 2010
17447 7.9322507014644748 -1.9224077615198474 -0.75155136761156682 174 113 82 0.97926189569969724 29 5719 31 1858 14 4776
17446 7.8894211942214083 -2.4433690330822375 1.0741529806350827 199 198 186 0.49810483610242207 29 1994 30 1851 31 1857 36 2542
17445 7.8956007060132274 -2.8305091512682488 2.3431439002069072 204 201 184 0.28314277066845089 30 1929 31 1844 29 2068
17444 7.8465926940601731 -3.0878006892878949 3.2700869299411792 198 196 181 0.22853996481479666 29 2136 30 1981 31 1843
17443 7.9177434410671372 -2.2610368560791727 0.29364677402435857 210 196 177 0.57984782266032275 29 5798 31 1820 35 3551 34 2256 37 2476
17440 7.8544541983062208 -3.0063634229853937 2.7694627452915634 197 195 180 0.1961657830699314 29 2067 30 1902 31 1798
17439 7.9007654873330484 -2.6945293635104433 1.5385889596830398 210 209 191 0.45538887864093741 30 1791 31 1772 29 1985 37 2074
17438 7.9366233815717244 -1.9132411855482083 -1.1486465628003208 176 132 108 0.11271825676141405 30 4658 31 1765 36 2821
17437 7.8683842558304864 -2.9468343770819057 2.3838594775361637 197 193 181 0.17925446890549523 29 2022 30 1844 31 1763
17436 7.85319327776714 -2.9191209126699103 2.263748640599152 198 199 183 0.76659188864997552 29 2006 30 1822 31 1756 37 1866
17435 7.9335605839726391 -1.8894361864371394 -1.288173275245776 161 107 81 1.2067679867100705 29 5610 31 1746 36 2810
17433 7.8823712071975738 -2.8821218207350765 2.0045708585502928 202 205 195 0.50442721677664504 29 5852 30 1784 31 1734
17432 7.9228331852595426 -2.6176252504813919 1.0582348078923491 205 208 195 0.12466880620153413 30 1721 31 1730 29 1938
17431 7.9149955422206659 -2.2210525305529405 -0.29952629946880188 209 209 185 0.8574364137318029 29 5678 30 1597 31 1720 35 3320 36 2452 37 2290
17429 7.8890871581862712 -3.1635173515352846 2.646538340555844 141 95 71 1.3221483740908078 29 1989 30 1763 31 1686 37 1593 36 1488
17428 7.9055870395606735 -2.7574874026235627 1.2244933127625448 201 196 176 0.69544363017871091 29 5766 30 1660 31 1676 36 1782 35 2773 37 1803
17427 7.8845052613670763 -2.9369764982925135 1.6592481180766596 155 108 82 0.40797459773599898 29 1915 30 1655 31 1653 37 1617
17426 7.880325031756068 -2.918108214112058 1.563713030501817 152 101 74 0.81155393068505122 29 1907 30 1644 31 1650 36 1545
17425 7.8734317312248621 -3.0113387466739319 1.8004094722740047 133 85 63 0.3666877218305587 29 1911 30 1643 31 1640 35 2517 37 1527
17424 7.8858196246716812 -2.9886427403596514 1.6187446931228151 126 79 61 0.36529421430416525 29 1889 30 1607 31 1624 35 2484 36 1448
17423 7.8912559173216712 -2.8530922143224853 1.1699149309914361 151 98 75 0.63270124175594167 29 1859 30 1583 31 1620 36 1547
17422 7.8547800481767514 -2.8158430722896468 1.0483744997229909 148 92 69 0.38932966186761131 29 1847 31 1614
17421 7.8800637565841658 -2.9274412372044423 1.3125403664912578 139 77 52 0.32524532356931246 29 1853 30 1573 31 1604 36 1449
17420 7.8899945577227761 -2.8007885602919798 0.8784698112032745 158 96 71 0.63826729087957534 29 1827 31 1600 35 2536 36 1529 37 1570
17419 7.8891457741576332 -2.9171175190319025 1.2309297035910867 132 75 55 0.30377594157066751 29 1843 30 1558 31 1599
17418 8.0367210629029007 -3.7521233235167104 3.4435104647045556 58 50 48 0.75878490270355881 29 1936 30 1620 31 1565
17416 7.8393621349767875 -3.3182686568247628 2.0261995559646344 211 212 206 0.55269624642463466 30 1529 31 1533 29 1835
17415 6.1255208798224228 -5.1310016578289783 9.0384110497770447 189 189 181 1.7625332778984728 32 1735 31 1529
17414 7.8345027729472649 -3.2078998141896613 1.4251186292221811 212 213 199 0.052960125331416037 29 1783 31 1511
17413 5.7496837016394577 -4.2865768669126005 6.5201037805741011 181 184 179 0.42123599720029808 29 2075 31 1502 35 7559
17412 7.9042332511618492 -2.9288961587057889 -0.40311959390093277 211 213 200 0.46586826604769477 29 5440 31 1435 35 1917 36 1273 37 1085
17411 7.9754210242352412 -2.0735529233727639 -3.1995057695655009 160 115 96 1.3257231206700217 29 5274 31 1376 17 6075
17410 7.9170142024877785 -2.8729858014329386 -1.0588214719171245 211 210 190 0.65182283029213328 30 4343 31 1369 36 1237 37 1048
17409 6.6576289897392922 -5.2680311775428414 6.4869379426374874 28 27 25 1.2985260628493229 29 1837 30 1446 31 1355
17408 7.9002015942736454 -3.1024166063438656 -0.64308873536378297 215 220 210 0.75962196762487555 30 4341 31 1332 37 1001
17407 5.6457767025657999 -6.347837869854267 6.1617094919331912 190 188 176 0.69065429405066692 32 791 31 816 35 722
17406 5.6122518321000872 -6.4044671998420686 6.1521675477616613 191 188 171 0.40169680666512914 32 764 31 781 35 695
17405 4.5884717682844336 -6.5535219596382888 6.1051144374129205 180 181 173 0.50606505961866677 32 671 31 512 35 559
17404 5.6467459617407405 -7.5200832811371905 5.9532295673346303 189 193 189 0.31659571473200315 32 435 31 376 35 494
17403 7.9228193595230643 -4.8691598085558345 -1.7716782647210809 225 230 229 0.52253962469801929 29 706 31 263 37 598
17402 -2.9127344204480332 -1.1368922345443686 6.9004384511084975 0 0 0 0.11390144239015675 5 8855 7 7906
17401 -6.6563379390410784 -2.1153461494997732 6.9905444956767679 87 89 84 2.5355977814035318 1 7688 25 6547 24 6772
17400 -4.2781886890671119 -1.5527510742140034 7.4491662203383857 48 53 47 2.406276169179558 1 1570 3 6288 24 2301
17399 -4.7208400463910376 -3.3829394629262186 6.4731951228493418 175 172 164 1.4436183003016017 25 5998 27 1064 28 1513 32 1977 24 6412 38 1764 26 2771
17398 -5.5913610135549501 -3.2166562818040783 6.5025275612541646 140 86 70 0.86350189822700463 25 7698 33 7783 38 7173 24 7920 28 6100 32 6934
17397 -4.6698564105182792 -2.7966934656492635 6.5803107874148754 170 166 153 0.72150757477950933 25 4308 26 3173 24 6509 27 1444 28 1963 38 2286
17396 -5.3218038710302542 -2.4154435122102336 6.6336300740937384 167 166 157 0.42077591539394071 2 8703 1 7308 24 6609 25 6369 27 1699 28 2266 32 3288 26 3369
17395 -5.0515955010801736 -1.5495800354432068 6.7976421207117079 163 163 152 1.1025549371930012 2 9984 1 8418 24 8745 25 8679 27 8224 28 9297 32 10286 38 9268
17394 -4.9893399094701909 -1.0786728489682533 6.8764224525923341 117 70 57 0.31849576993841416 1 8019 25 8228 27 6561 28 7563 24 8279 32 7285 26 7611
17393 -5.4435692856318454 -2.3253955799234647 6.6443171855160017 39 42 44 0.92320405381682868 1 5969 25 4683 24 6647 27 1766 28 2340 32 3347 33 5062
17392 -4.2196606925690041 -1.1160064102017258 7.0789237050964804 29 24 22 1.3345505435305569 7 9885 3 10109 24 8622 28 8301 32 8507
17391 -4.4539333324656658 -2.1492546496580429 6.6812429517686125 111 106 93 0.56088345328444 2 7331 1 6079 24 6643 25 4773 33 2956
17390 -4.768830835267905 -1.1854239955758661 6.853633653643926 168 167 163 0.33604225711018404 2 8070 1 6706 24 6941 25 5239 27 2717 28 3419
17389 -4.2465341716378449 -1.9895587501138565 6.7077251535943549 122 80 68 1.0966878532739257 2 7432 1 6175 24 7541 4 8802 3 8937 25 6530 33 5181 27 1967 32 3671 26 5553
17388 -4.2568403170781517 -2.0956386958179909 6.6938857759834933 157 157 146 0.44155636190837 4 8780 3 8921 2 7370 1 6124 25 6497 24 7528 27 1894 32 3572 26 3493
17387 -4.7702054911148464 -1.1858710250886229 6.8569072536565514 160 160 154 0.55483521240115286 3 8158 2 8071 1 6707 24 6942 25 5240 38 3478
17386 -5.4121953325807928 -1.2361323950283065 6.8336600258581877 155 154 146 0.41457881578848405 2 7989 1 6658 24 6933 27 2688 28 3382 32 4291 25 6876
17385 -4.7035106223978804 -1.7704564948709856 6.7384086863922743 166 168 166 0.97669591208289441 1 6341 33 3235 24 6769 27 2149 28 2750 38 2954 26 3616 25 4991
17384 -5.4169120180275501 -1.5001440179654542 6.7940052651561986 170 165 156 0.57408342665717405 2 7829 1 6525 25 6760 27 2430 28 3094 32 4073 38 3231 24 6876 33 5304 26 3732
17383 -5.4162337656301558 -1.5556551109426346 6.780622614297223 157 155 141 0.50892185038985382 2 7774 1 6483 24 6865 25 5101 28 3031 38 3187
17382 -4.5031419303168967 -1.5066938292862568 6.8053732037761172 110 110 105 0.93368527671825507 3 7913 2 7819 1 6524 24 6847 25 5122 26 3711
17381 -5.1668940229696743 -1.7154090717897867 6.7557962597034091 168 167 165 0.48409690325305615 2 7664 1 6386 24 6806 27 2220 28 2828 38 3028
17380 -4.7495813135126914 -1.7724522298824179 6.7459838659001807 163 162 155 1.0836330360606474 2 7598 1 6340 24 6774 25 4989 28 2761 3 7637 38 2963 26 3620
17378 -5.1174038743918366 -2.3050372436927313 6.6613520436613411 120 120 114 0.53603340012291767 2 7217 1 5984 24 6635 25 4688 32 3378 27 1780 28 2350
17376 -5.2165199303594436 -2.797187486845746 6.5902363706852594 156 151 134 1.2588881381507058 2 8619 1 7230 24 6537 25 4332 28 1981 33 4989 38 2300 26 3212
17375 -5.012711179106093 -2.9016446423261146 6.5708151875158496 131 125 112 0.80602149032091064 25 4218 26 3142 24 6508 28 1902 33 4975 1 7183 32 2763
17371 -4.312030765760869 -1.4887705940460196 8.0753946547194495 97 116 122 0.83163355637887459 25 8829 24 8946
17370 -6.9973102799670288 -2.2755007753815542 6.80168858200597 0 0 0 1.0821138861947783 26 9945 28 9927
17369 -3.0260468102676223 -2.958979801050357 6.5818225825098597 196 189 173 0.21958625965973694 33 9040 24 8868
17368 -6.9407446138399234 -0.78483251982103119 6.8182781364413758 117 74 58 0.88911102373635165 26 9531 38 9756 24 8847
17366 -4.1453660934248679 -2.4438927455425161 6.7001794173822642 15 14 11 0.55148858716869098 25 8639 24 8819
17365 -5.3364033976837071 -0.95309179255316412 6.8434122179412569 179 172 153 2.7042920819976461 1 8310 2 10012 24 8756
17364 -5.7996003204065651 -2.9595559584163871 6.5514246052485037 155 140 115 2.1378788430888429 28 9154 24 8712
17363 -5.7560225572971309 -2.9339152618267921 6.5032437361461266 155 140 115 1.2437755704310027 27 8447 24 8711
17362 -2.8275810183657653 -2.6519371274960792 6.6008681299816976 135 87 74 1.324562494541941 25 8350 24 8704
17359 -7.3738989769784986 -1.6281291905026682 6.634835293267086 68 63 60 1.1713565996528714 25 8675 26 8771 24 8615
17358 -6.0778815359568803 -2.7418776250894283 7.075318545592916 10 8 9 0.38521953690957444 1 8358 24 8588
17356 -3.1238274094752105 -2.5976453279972294 6.6400382443387036 148 93 71 0.27656681529776261 25 8352 24 8566
17354 -6.8053203108122693 -0.86194075748290699 6.9756433305611809 131 71 47 1.970477978741646 25 8242 26 7634 24 8288
17352 -6.7396521590234348 -1.6622079300159842 6.7817671859861468 117 71 58 0.5075543688209242 25 7842 32 7167 24 8009
17351 -6.7399891346867271 -2.0302527577256773 6.7093111563575958 123 82 64 0.44000426669477483 25 7800 28 7436 24 7996
17350 -6.7376329951761091 -2.2523056848378782 6.7035874267491229 107 56 43 0.54845551855730901 25 7794 28 7416 32 7062 24 7984 27 5320
17349 -2.8521929770094627 -1.8311797384486386 6.7553823185549291 185 178 166 0.75455354497427907 3 7599 24 7968
17348 -7.5100508457007997 -3.9448661509884917 6.0652373376141 10 9 5 1.6756443386309983 25 8012 24 7906 23 4081
17347 -7.5100508457007997 -3.9448661509884917 6.0652373376141 10 9 5 1.6756443386309983 25 8013 24 7905 23 4080
17346 -7.5587958037389686 -3.9499338204343468 5.9516517724643592 13 12 8 2.5661210824802554 25 8337 23 4262
17345 -6.1797458920733011 -3.713953697446569 6.388195929008325 134 101 79 0.08999850317957056 32 8045 24 7898
17344 -7.3729001141002026 -4.8311771275797311 6.2083771043487106 182 181 161 0.62922557548057811 28 7149 24 7876 23 4049
17343 -6.7801306394267051 -5.319390932597285 6.1243952396272334 139 126 107 0.82465397753552772 28 7107 24 7857 23 4022
17342 -7.3644002905884225 -5.6018223707345189 6.054986554464592 177 167 138 0.012797895212559245 28 7088 24 7856
17341 -7.3471854572036577 -0.087167519643285382 6.8668223257891947 132 138 138 0.12567294309252283 26 6933 24 7756
17339 -7.2450447668719864 -2.8265710003445461 6.5449480201837105 146 86 62 0.079363105024615008 26 6654 27 5232 24 7518
17338 -7.2450447668719864 -2.8265710003445461 6.5449480201837105 146 86 62 0.079363105024615008 26 6655 27 5231 24 7517
17337 -6.0065821170692804 -2.6464943128838456 6.5464460179790152 163 102 73 0.84608571630939677 1 7893 25 7735 24 7508
17336 -2.8622831369838546 -2.5326453595982863 6.6616211223311383 151 100 85 0.3184425948225198 7 7014 24 7421
17335 -7.0555216366253584 -0.74323476170421121 6.9204258842953648 130 101 87 0.59281032642425691 25 7160 28 5116 24 7059
17334 -6.7213437017333515 -1.2331418180205616 6.8518034136460759 160 151 133 0.28942919515280657 25 6912 28 3414 24 6967
17333 -5.3593747908516125 -1.1804762986797215 6.8337545250129024 182 177 158 0.10290250195780708 26 3837 24 6960
17332 -4.6661204699348131 -1.1849116513201277 6.8549522805736878 186 181 162 0.85879717142434564 1 4956 2 8050 25 5242 24 6938
17331 -4.5643397834600892 -1.1846441478471326 6.8518718464882706 187 178 163 0.18259225611915497 25 5245 26 3817 24 6936
17330 -4.3037318549712342 -1.3012326071147959 7.6445512057151976 85 109 113 0.96501434818265475 1 4992 25 2238 24 6928
17329 -6.7512264144451946 -1.6337670613658593 6.9198574873406411 156 147 126 0.61633233404169074 25 6738 32 3924 24 6884
17326 -6.7469515622290706 -2.2161710646015322 6.8085078151246776 144 129 109 0.21706007145731943 25 6499 32 3422 24 6747
17325 -4.7061431953167121 -2.1527519252820415 6.684460277644936 188 174 154 0.25924118119998729 2 7301 25 4779 24 6660
