# 3D point list with one line of data per point:
#   POINT3D_ID, X, Y, Z, R, G, B, ERROR, TRACK[] as (IMAGE_ID, POINT2D_IDX)
# Number of points: 336, mean track length: 4.7782581840642369
8303 -5.3619021570490917 -1.6210873286277727 6.6880397994364156 173 169 156 0.27540983228958033 2 7776 1 6472 28 3009 27 2377 38 3175 26 3697
8300 -2.4492660684511378 -1.6543915334991164 6.7703799273908087 199 196 189 0.34586505980008053 2 7737 1 6438 33 3494 28 2919
8165 -5.0638994201718734 -2.8045196293469008 6.482689440774803 173 174 160 0.31797407486797263 2 6841 1 5617 25 4366 26 3233
8071 -2.9800121704263116 -0.062147840793427327 4.4802247882714941 117 124 124 1.2465843911362655 2 5580 1 4412 25 1037
8063 -1.9203703310986537 -0.59258431840119186 6.2417188346142263 126 126 121 0.58556000826797761 2 5441 1 4322 25 5468
7512 -1.8748913561585672 -1.7466074243768848 6.7860060691174926 49 37 28 0.2289250915244708 7 1342 8 1472
7505 0.22070313511605072 -2.0522351563800898 6.8028896324218264 155 109 81 0.34368187797272476 6 991 8 1259 9 1283 10 1398
7480 1.6524013149197081 -3.3878401748368905 8.8767581591247922 93 105 102 0.082287998616302455 5 771 8 894
7474 -2.2292232286888427 -2.5514527628869073 6.6199145270167756 144 96 74 0.29358979511621963 2 765 8 704 1 831
7433 -4.3901037186998098 -2.0115873952192609 7.1007051858475991 91 108 112 2.4679579209517275 3 10225 2 9843
7420 0.033487075879245959 -1.746607748981486 6.8936072560628574 196 198 197 1.8962736655551049 3 10528 2 10236
7389 -0.88452322071497924 -1.9821074331031057 7.0447685351538718 81 93 91 0.40834505127275544 5 9805 2 9844
7384 1.350005564291336 -1.0208851719296805 7.2176890052008424 181 216 244 0.89514966939810359 2 9751 34 9320 3 9956 1 8218
7378 -1.7168804932173036 0.41082767713664647 4.5325566804264916 90 95 98 0.58067924738972432 3 9850 2 9653 1 8118
7366 0.031379846582348603 -1.5855161710502224 6.8991854624750717 153 91 71 1.1495120003070478 6 9181 2 9518 8 9504 9 9704 27 6476
7353 1.8669979688745033 -2.8277731559726869 6.7322653644089927 131 83 70 0.48509371013778013 3 9619 2 9425 33 6253
7346 -2.0890470282854037 -0.18159107811294881 4.3919887611207074 37 47 48 1.2042042737422565 3 9805 2 9330 1 7819
7299 1.5438728241405881 -2.7866611035583078 6.7182593058719151 116 79 68 0.70994545591024949 3 8780 4 8657 2 8653 33 2980 38 2337 34 5057
7295 -3.947556158303243 -2.827706373819209 6.5166916268978197 145 92 75 1.0573081792939427 3 8712 2 8624 1 7236 26 5307
7294 -2.1153722702880295 -2.8867536674519223 6.5567105073711014 195 195 180 0.93971875452978615 3 8704 7 8455 2 8613 8 8431 1 7212 25 6190 27 1404 33 5041 28 1915 32 3081 38 2267 26 5246
7293 -2.6496110706060025 -2.8858273185194889 6.5512978075796022 194 196 184 0.58959164421796662 3 8699 7 8464 2 8609 8 8438 1 7215 25 6206 33 2566 27 1416 28 1928 32 3042 38 2275 26 5272
7288 0.87424413907501397 -3.0365085819169484 6.6452213505841344 191 194 187 0.14787650730289367 3 8680 2 8537 1 7153
7287 0.55741255116916877 -3.032249371747008 6.6317704314985644 182 172 147 0.17226711070001452 3 8675 2 8536 1 7150
7286 -2.0022075815897198 0.42469592871022233 4.4319711269475643 127 136 133 0.92188200475306614 3 8607 2 8504 1 5345
7282 -2.8143273735391499 -0.15706587968823324 4.4369357144116792 146 34 68 0.59056117772395034 3 8478 2 8406 1 7020 24 8092
7278 -0.75479882857479896 -0.48754355332377164 5.7067609000497752 75 85 87 2.2429241760312579 3 8424 2 8348 34 7105 38 3741
7276 -1.3742447911272371 -0.68861531609576587 6.5960884154949229 115 112 107 1.4825506164893441 3 6483 2 8330 1 6965
7275 -1.6070157055210015 -0.71238658332337124 6.2838829534655467 223 232 235 1.6261232051264658 2 8323 33 4138 3 8405 26 6012
7274 1.290051278788177 -0.84836368258347228 7.108630937265298 165 183 199 0.83735589990354109 3 6471 2 8316 1 6957 34 5737
7271 -4.8869711105770781 -0.98268066811570476 6.8328631843924192 170 162 151 0.41662273151969897 3 8345 2 8255 1 6858 25 7098 27 2925 32 4603 38 3656 26 5968 24 7706
7265 -4.6996603766336422 -1.0397617407463839 6.8163067036252833 160 165 156 1.0911237730019034 3 8298 2 8211 1 5044 25 5318 33 3901 27 2880 28 3604 38 3607 26 3916 24 6999
7249 -4.7181778552522822 -1.2555383377032354 6.7899049652332222 177 174 165 0.28351941701655142 3 8146 2 8052 1 6708
7205 -4.8816394617254355 -2.0004957790233826 6.6383138039785594 131 112 105 0.5917452235876548 3 7547 2 7505 1 6233 25 4917 33 5187 26 3566 24 6732
7122 1.4550403670966172 -0.47592239358660926 6.9071486129491992 187 207 230 0.62311666717390635 3 6519 2 6510 1 6990 34 3698
7121 -2.0894713987835476 -0.58889429843450081 6.2439853640812677 81 83 82 0.44535168194136093 3 6503 2 6501 1 4323 25 5465
7120 -1.8736380870825478 -0.59186052910107967 6.2510857771271535 113 113 103 0.19003927424298725 3 6499 2 6499 1 5156
7107 -4.8511048935538117 -1.3625117904460036 6.7462695623469191 125 98 83 0.45457524705158098 3 6329 2 6303 1 4931 25 2228 33 3614 24 5735
7106 -4.692947850492784 -1.5146785262948894 6.7105922894659953 121 106 101 0.25435063547568226 3 6262 2 6251 25 5137
7093 -1.6952745095621906 -2.6582938662552142 6.6083736146989862 158 100 78 0.49641372679241957 3 5995 2 6005 1 4697 25 4391
7091 -2.1927510133039032 -2.724611851605041 6.5928716397820972 154 107 89 0.2894771320561062 7 5953 2 5979 1 4676 25 4343
7089 0.73227506952906873 -2.773363509731873 6.6981637030346013 148 96 75 1.7697314701854303 3 5980 2 5960 1 5650
7072 -2.3008134593995639 -0.23541395688478045 4.8580372902663429 154 159 152 0.33949059194638442 3 5467 2 5484 1 4363 5 5394
7071 -1.5255395157798652 -0.30792317631841765 5.9274273100089898 60 49 43 0.28774992682229023 3 5449 2 5471 1 4353
7068 0.77695168777349921 -0.56324928170716837 5.6598714347573829 126 107 83 0.66752237932186798 3 5405 2 5436
7061 -0.14237163368166642 -1.1051332124404467 6.9486017690700592 181 183 169 0.97302629319619027 3 4134 2 5313 1 4214
7048 -3.2004107452797208 -2.9348319562206462 6.5143699819492484 166 119 100 0.75923276475752111 3 4981 7 4931 2 4928 1 3929 25 436
7037 -1.5014731435001198 0.23108845108989165 5.2599034571802683 103 111 113 0.36779810460916251 3 4654 2 4603 1 3727
6966 -1.3598233673241702 0.20817417318875814 4.6527743339235466 104 116 114 0.40810853111015016 3 4704 2 2941 1 2411
6965 -1.3519067559022913 0.20651788576908006 4.6563013964548219 81 89 91 0.99094221745519695 3 2977 2 2937 1 2409
6963 -1.5031180617516242 0.14275691000194249 5.263049715763457 93 111 116 0.43958378715319252 3 2806 2 2842 1 2334 25 1159
6962 -1.5197601689571238 0.14135624334162059 5.2759710253004899 89 104 109 0.26895097297326165 3 2804 2 2839 1 2331 25 1154
6959 -1.2045716964216671 0.01487179614229479 4.6485803170301594 196 224 235 1.0858927118731982 3 4562 2 2788 1 3671 25 5585
6954 -2.844089000220682 -0.14092273188659471 4.4406479399814742 119 40 68 0.6899805262212988 3 4476 2 2607 1 2135
6945 1.0832823096379471 -0.50613837410495111 5.663309025040137 121 174 242 0.344214716198809 6 1838 7 1997 2 2407 8 2210 9 2331 10 2405
6925 1.9644557421990012 -1.1836423575390713 7.0264810886782616 179 181 170 0.46204584403040744 5 1633 2 2027 8 1884
6924 -4.5184769500478632 -1.4197679940247587 7.6701128256434021 81 101 101 1.0306243892953029 4 1631 2 1985 8 1771
6920 -2.9714002396965138 -1.4807283598279108 6.8116981537063239 136 139 134 0.5679259003795023 3 1732 2 1833 24 4288
6891 -2.777811056100111 -2.4227882359249207 6.6361641877454298 195 182 165 0.17353913845626845 3 849 2 922 24 2015
6888 -0.20657115080202024 -2.5560591580609757 6.6931185379773543 199 197 182 0.12411149802409792 3 758 2 784
6808 -2.3714427696919844 -1.0414911826773763 6.8912750449991913 43 43 42 1.5370924148539209 4 9323 6 8921 3 9454 4 8992 7 8889 6 8613 2 8978 8 8867 1 7763 33 5550 28 5036 28 6427 32 4677
6803 -0.99114742447556659 -0.19200692838450234 5.5875030459045787 44 64 90 2.0415633833534561 4 9380 3 9516 5 9249 6 8969 8 9294 7 9554
6784 -1.8233035540699547 -2.5741729611835931 6.7791848371146433 10 10 5 2.9441718717625127 4 10173 3 10188 1 8167 25 8354
6678 -2.456524082828222 -2.2940874849354058 6.6456423261518038 184 185 179 1.3455293887941724 4 8747 3 8886 25 6424 33 5166 32 3551 38 2644 26 5448
6675 1.8957336796084638 -2.6125146346195591 7.0232921184046484 35 39 38 1.2363644689095807 4 7182 3 8853 2 8716 34 5142
6671 -4.3960947462107596 -2.4947551491604769 6.5468883377145639 155 154 151 0.66557690827971783 4 8666 3 8799 2 8684 1 5860 25 6353 33 5069 27 1666 28 2224 32 3322 26 5425 24 7492
6670 2.9096635457103841 -2.9569246073889226 6.7430149734982869 150 152 147 1.1479909749036565 4 8621 3 8746 9 8582 10 8912 33 2968 28 1815 32 3303 38 2214
6658 -0.2066510278076851 -2.919494996451923 6.6316668741819855 184 177 161 1.0492931708366102 4 8593 3 8717 2 8588 8 8411 1 7201 33 2760 27 1377 28 1887 32 3138 38 2247
6652 -2.0466009551757018 -2.8945456649551815 6.5685442320168397 179 176 165 0.51963108029555827 7 8452 3 8705 2 8597 8 8432 1 7209 25 6185 33 2641 27 1405 28 1916 32 3082 38 2268 26 5243
6649 -2.5149279641730482 -2.8798370252179861 6.5466468770718285 178 178 167 0.96999563738401828 7 6791 3 8701 2 8617 8 6806 1 5530 25 6203 33 2584 27 1417 28 1929 32 3060 38 2276 26 5269
6643 2.1033367757798951 -3.0477821157288982 6.6889396184545866 171 172 166 0.68505692168696908 4 8565 3 8689 2 8540 10 8833
6634 -2.218273242491045 0.37405775169836042 4.639769678161719 76 90 101 1.4766600707899036 4 8486 3 8580 2 8495
6628 -2.1645850523906662 -0.15379746781061956 4.4052172401807272 106 76 35 0.99504636809361457 4 6463 3 8479 2 8408
6627 1.2135030285582362 -0.20096904040420499 5.4686726006591391 56 81 96 0.069236775679208162 4 8337 3 8449
6620 1.3109299606454696 -0.88979604727836215 7.0938106484340793 109 119 129 0.81845257398305671 4 8284 3 8392 2 8304
6619 -4.6872555274373902 -0.87966609525297668 6.8652137916368163 128 79 64 1.3141757831771474 4 8257 3 8389 25 5401 26 3980
6609 1.9372161744901111 -1.0621184310208922 7.0829304063249996 138 136 125 0.62176500479577657 4 8209 3 8321 2 8224 34 5659
6605 -4.540270239170507 -1.0408596041615334 6.8173255800406611 156 155 150 0.6879376112143164 4 8143 3 8300 2 8201 1 6840 25 7083 27 2875 28 3599 32 4565 38 3609 26 5936 24 7694
6601 -4.4888683000521512 -1.0991483443939354 6.8065133944318585 155 155 149 0.65500395723677285 4 8096 3 8255 2 8171 1 6805 25 7029 33 5493 27 2832 28 3548 26 5900 24 7678
6594 -4.5599544137078611 -1.2009420130956379 6.8024528368806703 152 153 142 0.62298189081384803 4 8047 3 8208 2 8113 1 6759 25 6979 27 2749 28 3464 38 3511 26 5879 24 7660
6589 -4.3947309999013093 -1.2567538156630385 6.7836180924523592 152 152 140 0.12066754740999887 4 7962 3 8152 2 8057
6569 3.1350366236540461 -1.6682095785911086 6.9902522162905356 165 162 153 0.69887267193012481 6 8522 3 7900 34 5434 30 2895
6558 -0.37217950691068968 -1.9553252818868805 6.798703847014294 187 185 164 0.39828940510640154 4 7480 3 7603 2 7525 8 7394 1 6249 33 3404 27 2001 28 2606 32 3994
6548 -4.4303736929932427 -2.058735431259656 6.6209766937013432 117 83 71 0.90540234251426532 4 7360 3 7485 2 7431 1 6174 33 5180 27 1969 28 2561
6534 0.25870195314925892 -2.4932409496198824 6.7204289504063874 188 182 167 0.13958044013225548 5 7150 3 7254 34 5094
6522 0.51887829991588519 -2.7155696489455958 6.6913137750239633 147 85 60 0.75474339256782741 4 6991 3 7082 1 5688 34 5024
6512 -3.203420645511339 -2.7858411516631194 6.5418249381761475 139 85 67 1.0675762892245826 4 6824 3 6935 2 6870 1 4644 25 4313 24 7410
6507 0.12878158056803685 0.54393960930433927 3.8647355336216291 56 63 63 1.2797658753180758 4 8551 3 6851 5 9085
6497 0.14962316306002388 0.26044090407556542 4.9097050487847751 70 76 76 0.29696948760908382 4 6619 3 6721 2 6666
6496 0.045891518016588556 -0.05680773343311394 3.9406836147611686 46 30 21 0.65550071954428601 4 6567 5 8350 3 6666
6493 -2.1613868661682409 -0.18171227282697092 4.3887732836367519 106 73 35 1.3135676474337774 4 6447 3 6578 2 6558
6475 1.3081825804814855 -0.99823288821479406 7.2265691453527063 103 107 119 0.57889839954028555 4 6274 3 6424 2 6430 1 5090 34 3481
6474 -0.4722818921866006 -0.86816804385293 5.951603229620531 56 61 58 1.0178909770263 4 6255 3 6416 5 6278 2 6417 26 3909 34 3430
6460 2.675373072665066 -1.6081135808643974 6.9752585361903163 151 152 164 0.69779334850339547 4 6131 3 6248 29 6675
6425 -0.091026784466652841 0.21469964968912369 3.7098553616700691 148 96 46 0.48231879667200384 4 4687 3 5812
6424 -0.40903783910343539 0.20976837576588153 3.7399534056415336 119 126 129 0.72311645724950979 4 5681 3 5807 2 5791
6413 -0.69414982888640409 0.33756973520984834 4.7664371502467269 41 45 44 0.28943468235135317 4 5607 3 5731 2 5745
6411 -2.8929490963240054 0.30348087842264782 4.9919450297361267 4 5 3 0.16555305269986392 4 5592 3 5719 2 4651 1 3739
6378 -1.4602324768241877 -0.53729797935339751 6.5422597607245159 53 42 31 0.52419067124143037 4 5244 3 5419 2 5454 1 4331
6376 -3.0918252384370732 -0.54761048788429478 5.9571301296369512 128 96 55 0.79209303220550498 4 5240 5 5327 3 5414 2 4282 1 3485 25 926
6373 -1.4659677433278047 -0.66594280293251362 6.4293815969662189 85 82 73 0.96055200592939427 4 5224 3 5399 2 5428
6361 -0.99680134328035841 -2.0294026197019654 6.9566586461335271 50 46 45 0.35733741750547765 4 5038 3 5204 2 5204 1 4125 25 2166
6360 -0.99653101643826092 -2.0295540756226642 6.9581708512615856 50 46 45 0.72470833357284736 4 5037 6 4933 3 5203 2 5203 8 5210 5 5124 1 4124 7 5103 25 2167 9 6153 10 5434
6357 1.938099834398519 -2.5366464006698357 6.9522701696240583 67 67 55 0.45373283446148072 4 4972 3 5128 6 4855 2 5096
6353 0.55018451601967067 -2.7760065309601551 6.6833105225038052 129 79 65 0.90826449113961749 5 5038 3 5052 2 4993 1 3977
6343 -0.94852693821564027 0.23332007089720405 3.6290322888370845 181 177 162 0.2800455398766914 4 5726 3 4869 2 4792
6333 -1.9899712556895333 0.41084118092478117 4.5006806959383754 75 79 80 0.27092109263598041 4 4616 3 4801 2 3079 1 2523
6317 0.12926538593722015 0.28218209849296416 4.935342867956793 82 86 90 0.79658952029062768 4 4502 3 4702 5 4567 2 4660
6295 2.122098773330797 0.0025195107994172719 6.0020909014706234 35 39 42 0.26577336153390724 4 4244 5 4270 3 4461 8 4558
6294 2.1215185474343006 0.0026118188176874847 6.001286468655274 35 39 42 0.44111683294022397 4 4243 5 4269 3 4460 8 4557 9 2651
6287 2.657272408504197 -0.29645252098866304 7.0994859789614644 115 124 131 0.3763423834327389 4 4094 5 4165 3 4326
6229 -2.8960023459110751 -2.8646433771378632 6.5408810246595666 177 175 163 0.67277197282607271 4 3212 3 3459 2 291 6 116 1 366
6212 -1.6001260261487111 0.549321051960595 3.8415093040848798 103 120 130 0.55073924494145954 4 3128 3 3347 2 3245
6205 -0.11780034539966436 0.53846139966442819 3.8989550380601217 73 86 92 0.19262296158959349 4 3087 3 3315 5 4950
6141 -1.7776460478604943 -0.10979990930236451 6.4464728990889268 64 50 39 0.2557658425840364 4 2144 3 2405 2 2541
6113 3.1329990850084499 -0.810491846948874 7.1396182370028409 152 162 167 0.50883038410040193 5 1838 3 2184 10 2376
6100 -4.2056179707736359 -1.2163250104266434 7.9319305995947662 89 114 118 0.32392911243494815 4 1748 5 1682 3 1999 2 2127 8 1878
6098 -4.4534893795052959 -1.2757134431079691 7.7352391416072583 19 36 29 0.42321302885366485 6 1520 7 1667 3 1956 8 1826 24 2372
6031 -2.777099155263655 -2.5833357680851647 6.5906059410150961 64 50 41 0.65877642785366652 4 537 3 641 2 725 1 776 24 1953
6020 -2.1834752936153317 -2.710639097115386 6.5897341701852659 129 92 80 0.26381108891024108 5 291 3 455 2 523 1 578
6011 -1.4967729902594495 -2.8245240883123479 6.5916525152524503 134 83 64 0.9517559493870994 4 242 7 288 3 293 2 377 8 294 1 425
5994 -0.55957826481985673 -2.9242797584387907 6.611269608019045 182 185 171 0.20670568013796908 7 89 3 177
5983 -1.2098473555322924 -2.9476545268408558 6.5902202819262694 58 36 26 0.067523947958966324 4 79 3 130 1 234
5976 0.48802359615381152 -3.0085783227487872 6.6397501126067686 47 37 26 0.72690219701807079 4 3191 3 100 2 3339 1 2714 25 399
5974 -3.5360744627208742 -2.909990282538653 6.5256212207157542 48 39 32 0.24539558188677071 4 11 3 97 2 240
5973 0.088252749776381201 -3.0008336754102762 6.6258617131970716 48 39 24 0.23888363869545315 4 52 3 96 2 151 1 2722
5955 -0.93924397480659938 -0.22727859090607258 5.5853807958754587 195 85 76 1.0215732693023285 6 9692 7 10025 5 9972 4 10124 2 10029
5952 2.6998411397091635 -1.3448465064036468 7.0231761143766915 174 175 167 1.4094196072514649 6 9776 7 10104 5 9945 4 10099 3 10266 8 10095 9 10014 10 10327 11 8796 27 8236 28 9318 32 10365 29 11874 30 9610
5951 -0.81263251913215873 -0.26193513756288117 5.6124555965685081 206 220 223 1.6121950370269793 6 9584 5 9840 4 9997
5930 0.97609602048565325 -0.92561902363906157 7.2181664819066143 124 141 159 0.67520628767195545 7 9230 5 9213 10 9625
5906 -0.99528510579603002 -0.89478019752735893 5.8305520734220497 103 118 131 1.0827513060821317 6 7749 5 8895 28 3526
5888 3.0345896400378778 -0.97307511211097597 7.1017393034069736 135 89 76 0.92841145056560259 4 8253 6 7832 5 8148 7 8089 3 8359 8 8101 9 8263 10 8580 11 6796 28 3571 27 2829 32 4966 29 6991 30 3253
5775 3.1639982435097584 -0.92573017372019006 7.1200852012413316 12 12 10 0.81831703734404171 4 5199 7 6303 5 5284 6 5075 3 5361 8 6408 9 5470 9 6488 10 5640 29 4151
5744 -0.2602015089154821 -0.058678948156786488 3.9119070051916216 108 89 75 0.35773216592302026 4 4393 6 4266 3 4588 5 4481 7 4440
5734 0.74482818292048292 0.020182280020253251 5.9541667492186798 45 49 49 0.033359200373753686 6 4081 5 4289
5733 0.74530263810833497 0.020339221832992038 5.9563640259821593 45 49 49 0.13581790470831226 6 4080 7 4300 5 4288
5704 -0.34286604550535094 -0.86273805565527684 5.9595104088875814 12 12 9 0.19644110434377696 6 1594 5 3994 4 1772
5703 -0.76840964257787525 -0.8613206209400045 5.7826589686211616 25 27 28 0.21485347619418108 6 3747 5 3976 7 3928
5685 0.70958842319135051 0.39953643172941089 4.4259513081458071 90 97 101 0.17435376130858046 6 4494 7 4687 5 2864
5654 0.49161388593767996 -0.23648196415136741 7.1066072768939774 120 121 116 0.42328767682215646 6 3939 7 4137 5 2005
5649 2.5685133014422639 -0.35054586845650104 7.0976643589463713 135 144 151 0.51754713763742544 4 4084 6 3932 5 1970 7 4128 3 4317 2 4317 8 4368 9 2376 10 2469
5621 3.9772129905712403 -1.5505013949675719 7.2795170957162103 80 85 88 0.25533313896593146 6 1389 7 3827 5 1524
5612 1.3722999750144147 -2.9985463888605244 6.6685033374722833 79 68 62 0.21288239202880033 4 116 5 33 2 168 8 13
5585 1.9598246239888266 -1.5445652192319161 7.1189606036390485 90 67 55 1.1211380092947416 4 10204 6 9769 5 10049 3 10361 2 10133 38 9594 34 10102
5551 -3.5214029598124719 -0.85011292885247036 7.1290187014806063 34 34 36 1.9004625310465078 6 9568 5 9828 7 9899 8 9883
5546 3.5283615741748666 -2.7806916986723889 7.0039229711257081 9 11 6 0.91233543727838262 4 9780 6 9624 5 9781
5534 0.13948944009081146 -0.73425410580698358 6.1197326066233479 16 16 14 1.8179166144576764 6 9570 7 9901 8 9887 28 8862
5446 1.3198816052130142 -0.24889615509241853 4.3711465826604661 159 135 110 0.51809414789263197 6 8699 7 8965 5 8963
5432 1.387889769537245 -1.0455372707626669 7.220741684607936 169 206 237 1.2453463285410353 4 8227 6 8629 5 8909 3 8336 2 8247 1 6889 33 4088 38 3549 34 5678
5383 1.5639701168645441 -2.9323681066910057 6.690002607799137 139 86 72 0.63750705495717519 4 8607 5 8512 3 8733 2 8600 8 8401 9 8543 10 8884 33 2876 27 1351 28 4696 32 5903 34 5022
5377 -0.54262178950212503 -2.9109634382577156 6.6199005130123219 180 183 174 1.2778103118234734 7 8431 5 8493 9 8485 10 9492
5350 0.46087563270753906 0.027269087331003229 4.7134346277791277 85 87 86 1.5363926905046121 6 8024 7 8249 5 8343
5230 2.1054642027173451 -2.302628583604502 6.8313363028135257 174 172 148 0.48852051831823085 4 7316 5 7298 2 7247 9 7362 10 7649
5229 2.1054642027173451 -2.302628583604502 6.8313363028135257 174 172 148 0.48852051831823085 4 7315 5 7297 2 7246 9 7363 10 7650
5221 0.62029145740258884 -2.4374689468388184 6.7393796339448029 172 166 141 0.37795214922090342 4 7206 5 7200 1 4742 25 4543
5201 1.8179762143103582 -2.6798522622972745 6.7770917789169181 24 21 12 1.0223681020299267 4 7063 6 6709 5 7070 3 7161 2 7014
5166 2.4629321939924318 -2.8947710592165317 6.7367676092216779 173 173 161 0.94945337009355424 4 6881 5 6902 3 6981 8 6791 9 6946 10 7230 29 2916 34 2396
5054 -2.201506091600224 -1.7676425657613184 6.7681004930358553 137 94 78 0.45269625275586861 6 5905 5 6123 3 6204
5022 0.6643451173191619 -2.9429847482529388 6.6546586603292122 175 172 153 0.44169427410493789 4 5845 5 5914 3 5926 2 5924 8 5935 1 4611 25 4007 9 5944 10 6131 26 2710
4990 0.46961665120127993 0.32574091583399961 4.734114575318018 80 87 89 0.9094019529400913 6 5477 7 4592 5 5692 8 2935
4979 0.73585592378893883 0.23443392346105738 5.1041662156405234 88 90 94 0.45456279008268935 6 5411 7 5616 5 5640
4878 0.72972846411154502 -2.9601866412622027 6.6554823455164192 53 42 32 0.31447894773554946 4 4882 5 4992 8 5000 9 5049 10 5233
4812 -0.76653608127799677 0.33948642685922087 4.7665669390614323 38 42 43 0.37664503176077452 6 4391 5 4601 7 4562
4756 1.3272356219242725 -0.2549925819224097 4.3637331821957179 142 113 73 0.47914639357874589 6 3991 7 4187 5 4185
4742 1.1100270327738617 -0.47987750958948588 5.6629468737299371 151 166 199 0.32735952205251989 6 3905 7 4097 5 4141 4 2000 2 4293 8 4336 9 4380 10 4533
4699 -4.381520742117333 -1.1704646484502783 7.7845767038041931 75 99 111 0.10727552701010756 6 1568 7 1722 5 3969
4693 2.299884715430776 -1.4148361086549306 6.9992337869384063 49 43 36 1.1196828944040691 7 3854 5 3890 2 5277 8 4069 9 4092 10 4278 29 3868
4690 2.5218093804878139 -1.5476579252456173 6.9879747273163559 139 93 75 1.603769238494281 4 3802 5 3849 8 5281 10 5524
4689 -2.4227557108103319 -1.5122225361645563 6.8148956740488984 120 101 95 0.25510547154146801 4 3775 5 3832 2 4024
4685 1.0477531852462627 -2.082170953455079 7.0176321479229848 11 13 10 0.53329653459232085 4 3648 7 3650 6 1036 5 3732 10 4091
4680 -3.4893521265806502 -2.0494864125108379 6.8764669104671912 34 34 34 0.47824608153045828 4 3625 6 3512 5 3702 3 3898
4677 -1.9937013719458088 -2.0946934441899554 6.6971080639068363 131 80 63 1.4965505697980483 4 3585 5 3657 3 3847 8 3834 7 5074
4672 -0.4190481551965401 -2.3043619371995767 6.7384900853066139 111 99 85 0.44581521775110644 4 3514 5 3581 3 3787 2 3762
4670 1.9333665257608545 -2.4759485518961828 6.9632464100968745 87 87 75 0.91365619118014862 4 3497 7 743 5 3569
4654 -1.7898141940236822 -2.7112183960395226 6.607205201365062 50 31 24 0.29326090591238579 6 335 5 3419 8 462
4536 0.64804100670950671 0.28997832834024356 4.8786184937988075 91 100 103 1.106492801102914 6 4384 5 2747 7 4564
4534 0.59012284538691639 0.28195565335967604 4.9013603635810785 89 94 97 0.37681656553383158 6 4376 7 4555 5 2739
4481 0.56874925812986488 -0.16711491413597687 6.8179847048452986 142 146 145 0.2817720948152822 4 2105 6 1945 5 2033
4471 -1.5991834431981931 -0.36979142451992014 6.2981635002193599 170 195 209 0.62517099615902205 4 2030 5 1966 3 4315 2 4314
4456 -2.0660969559225535 -0.58292541705508605 6.2513267796298218 64 63 58 0.46346623576880513 6 1811 5 1895 7 1968
4454 -2.1899638156525683 -0.58395395075765544 6.2404843821014415 45 38 35 0.5425031982998908 4 1968 5 1893 3 2242
4452 -1.4438649881368171 -0.59894546278963845 6.2444239684535185 127 124 119 0.72009045786171699 4 1962 6 1803 5 1880 7 1961 3 2237 2 2364 1 1973 25 927
4442 -1.6401643853470405 -0.68985331148352425 6.2327956686617751 169 183 172 0.78226725320042578 4 1917 6 1729 5 1840 8 2075
4409 3.1538721014966593 -1.4432977080241813 7.0188308751096367 20 14 11 0.66988705076050481 6 3671 5 1539 8 1746
4405 0.54654868337840323 -1.4546129151089575 6.913270743581629 51 41 35 0.49464415978448534 7 1524 5 1501 9 1786
4392 -2.2179941804157624 -1.5351555984309937 6.8162993637647347 111 108 103 0.84694280630733443 4 1446 5 1417 3 1671 2 1790
4388 -0.0099664416083070362 -1.7160012731136167 6.8566014731780234 46 35 28 0.23086261444027764 7 1373 5 1335 2 1666 8 1506 1 1463 10 1670
4326 1.9353904689505392 -2.3181665081767484 6.9883282665861532 115 119 111 1.0882026953436565 6 809 5 933 3 3817
4325 -0.46540023190092256 -2.1896100286434925 6.7505559889045337 41 28 17 0.36733321705922012 6 855 5 929 3 1108 2 1194 8 1086 1 1117 9 1116
4276 0.29864245121870447 -2.6313487691867068 6.7042795332136667 60 31 15 0.084418267792982893 7 530 5 533 9 646
4273 -0.5071777082279304 -2.6154833502890171 6.6711702186787702 47 27 15 0.2973014120658608 6 463 5 507 3 682 9 591 10 651
4267 -2.1302602821815224 -2.6049818863950609 6.6203684856512615 102 97 93 0.7646357257535682 4 542 5 470 3 633 2 699 1 748
4266 -2.6145268283915164 -2.5935508990243412 6.609599502345338 69 41 29 0.17512696079167811 7 645 5 466
4222 1.975791498892449 -2.9253856941941474 6.7065659451852682 175 181 171 0.85846270700329275 4 256 5 172 3 277 8 3420 9 3480 10 335
4192 1.7749845730045732 -3.0100270453026052 6.6862564294072735 137 103 91 0.7389210817441616 4 125 5 44 3 153 2 161 9 110 10 3554
4121 -1.0178170795289598 0.34461588232227253 4.7698280849913601 18 20 17 0.99453859842388559 4 5609 7 5648 5 5694 6 5462 8 6626
4067 1.9519913551411354 -1.431317100812354 7.1660285394881766 97 91 75 0.81739950485190005 4 1611 7 1589 6 1445 3 4084 2 4071
4053 -0.34307520314904971 -1.7816711844881317 6.784988585571778 139 89 66 1.5317238703866962 5 10182 10 10553 8 10206
4043 -0.38568191721143297 -1.2549075141088801 6.8580832651489629 177 175 161 1.3871097294527934 7 10206 6 9886 28 9858 32 10890
4028 -1.9277931494828586 -2.231575035350795 6.681401929006638 180 172 152 1.2504424968276402 7 10074 6 9743 5 10031 4 10041 8 10074
4011 2.8980839951259698 -1.34822965815802 7.0203625471716116 169 170 163 1.3798000008963236 4 10100 6 9669 5 9946 3 10259 10 10328 27 8237 28 9314 32 10366 29 11871 30 9611
3997 2.0414738112366932 -2.7963664976851326 6.720806277290424 125 77 65 1.2118907446308715 7 9951 6 9623
3896 -2.9789272990268674 -1.1696427749400329 6.8589679658529823 122 80 65 1.0494675504540074 7 9195 5 9475 6 8909 3 9760 2 9249 8 9215 1 7743 25 7870 33 7373 27 5448 32 7303 38 6181 26 7603
3870 -3.1014583248188106 -0.54079882434173454 5.9605953040770077 140 110 55 0.85704128188008044 7 8139 6 8666 3 9166 5 8933
3849 1.9733032020571182 -1.2698721008504155 7.0091554940772314 173 172 163 0.02447654055673093 7 8850 6 8575
3846 -2.4476472602811299 -1.334118096118643 6.8281869302432119 174 171 166 1.2727397336813495 4 8948 6 8557 3 9070 2 7975 3 8059 1 6630 25 6856 25 7442 33 5442 27 2607 27 4060 28 4941 32 4428 38 3379 26 5806 26 6812
3845 0.33702359226568862 -1.3746517055357517 6.9331126004666634 178 177 154 0.57878920516160182 7 8827 6 8555 5 8849 8 8822 25 7437 9 8904 33 3817 27 2514 28 3187 28 4920 32 4544 38 3292 34 6937
3822 2.8223002917301185 -1.9938529931605802 6.9197336084504784 171 174 167 1.0940358498466924 4 8857 7 8691 6 8438 5 8761 3 8973 8 8693 9 8793 10 9133 33 3512 27 1941 11 7320 28 2535 32 4147 38 2793 29 6518 34 5333 30 2760
3809 -0.045750245678753423 -2.3331390738341669 6.7400372334687564 181 182 168 1.0144736998447896 7 8634 6 8381 5 7214 4 7229 3 8898 2 7222 2 8763 8 7148 8 8602 1 7341 25 6372 9 8701 10 9043 33 3169 27 1746 28 2324 32 3663 34 5119 34 6697
3771 2.9709959362849858 -2.8410041722663979 6.7591446892683571 166 166 161 0.80493201817481075 4 6936 6 8209 5 6959 3 7019 8 8444 9 7017 10 8955 11 7096 28 1906 32 3392 30 2404
1741 2.4798995734465898 -1.2763135123138534 7.0366678728379819 166 165 147 0.74903819387031911 4 8083 6 7672 5 8013 7 7901 3 8169 2 8080 8 7929 9 8092 10 8400 11 7505 32 4749 30 3074
1740 2.3311789457053909 -1.2735077537606174 7.020650108298427 175 178 168 0.75952243509525907 4 8082 7 8852 6 8577 5 8012 3 8168 2 8079 8 8848 9 8090 10 8399 11 7503 33 3936 27 2585 28 3279 32 4747 38 3340 34 5541 30 3072
16913 8.017386780767298 -1.5004058472904056 -2.3765816986412256 188 182 166 1.2948517633743493 29 8002 30 6505 35 4022 36 3226 37 2904 31 4951 15 6357 14 5115
1739 2.1299574539094888 -1.2705508909284422 7.0140461339827382 167 163 143 0.77929676041253293 4 8081 7 7900 6 7666 5 8011 3 8184 2 8078 8 7927 9 8089 10 8395 27 2591 28 3286 32 4738 30 3070
16912 8.0188644137672238 -1.5961626319478674 -2.1892239643510947 183 179 167 0.69658708875511655 29 8006 30 6503 35 3910 37 2806
1738 2.071041843745963 -1.2716696800681031 7.0182014453215995 173 170 161 0.53438816028759517 4 8080 7 8851 6 8576 5 8010 3 8183 2 8090 8 7926 9 8088 10 8394 27 2601 28 3285 32 4737 38 3356 33 3932 30 3069
16911 8.0198380671115181 -1.482790763560905 -2.4752082554864505 185 179 165 0.6363556162343954 29 7982 30 6497 15 6376
1737 0.46968480849819538 -1.2652378137949694 6.9571264010475051 177 177 163 0.57019256472435853 4 8076 7 7886 6 7635 5 8003 3 8166 2 8076 8 7910 9 8067 10 8356 33 3903 28 3311
16910 7.974432531840864 -2.0080399175225123 -1.4047206210664527 194 189 167 0.23144008181369982 29 8014 30 6491 35 3321 36 2593 37 2328
1736 0.32961423406263296 -1.2625752779782424 6.9489317931001846 176 177 163 0.45109360479101923 4 8075 7 7885 6 7634 5 8002 3 8165 8 7909 9 8062 10 8355 33 3897 27 2628 28 3316 32 4647 38 3390
16909 8.0170562367094149 -1.5475818112235982 -2.4422310270165859 183 184 170 1.1116521220425124 29 7962 30 6484 35 3882 36 3079 37 2796
1735 0.26712895203247577 -1.2612881588438427 6.9503074257669404 180 178 165 0.39776728922416799 4 8074 7 7895 6 7663 5 8001 3 8164 8 7908 9 8061 10 8354 28 3315 32 4644
16908 8.007212488933364 -1.8221215286950878 -1.8605864647800578 159 105 88 1.2132780298193715 29 7988 30 6480 35 3553
1734 -0.37546180949894586 -1.2520054593995971 6.9285069519457929 178 180 167 0.48964816177006698 4 8067 7 7888 6 7656 5 7994 3 8187 2 8093 1 6736 33 3875 27 2656 28 3345 32 4618 38 3409
16907 7.9781260324056626 -1.9721448991919059 -1.5967661847266981 199 197 182 0.52229859469579876 29 7987 30 6473 35 3302 36 2564 31 4818 37 2311
1733 -1.9829585368800429 -1.2298512474713257 6.8756381380868268 174 176 162 0.48093333582850351 4 8064 7 7918 6 7650 5 8864 3 8193 2 8099 1 6751 25 6960 33 3837 27 2691 28 3392 32 4543 38 3451 26 5849
16906 7.9936827308038625 -1.9465490013654949 -1.7458632951370519 197 190 174 0.69260905448046162 29 7963 30 6459 36 2567 37 2293 31 4809
1732 -2.044665002099427 -1.2272764651214394 6.8660274012789797 179 179 165 0.61231231390599805 4 8063 7 7917 6 7649 5 8863 3 8192 2 8098 1 6750 25 6959 33 5490 27 2693 28 3391 32 4542 38 3450
16905 7.9688753081127208 -2.1410769465834818 -1.3248830788846966 193 193 181 0.24267342736741768 29 7984 30 6458 35 2991 36 2238 37 2065
1731 -2.2460094348956003 -1.2252084705161577 6.8633480989064557 175 175 165 0.52536228741387114 4 8062 7 7915 6 7647 5 8861 3 8190 2 8109 8 7862 1 6748 25 6957 27 2696 28 3395 32 4531 38 3457
16904 7.9930674501185601 -1.7559995417189722 -2.1596167060621765 154 108 90 0.40947307022624596 29 7947 30 6451 31 4831
1730 -2.3815064464616627 -1.225245379642347 6.8658338694821461 174 175 164 0.56209197711575298 4 8061 7 7914 6 7646 5 8860 4 8962 3 8204 2 8108 8 7861 1 6747 25 6971 33 3827 33 5479 27 2701 28 3405 32 4524 26 5862
16903 7.998631938709333 -1.9285175919681616 -1.8438026781677817 189 192 171 0.72165995930797366 29 7951 30 6448 35 3284 34 2085 36 2569 37 2295
1729 -2.1836981555281572 -1.2274916292344964 6.8710116357144555 177 177 165 0.5373276799492781 4 8059 7 7916 6 7648 5 8862 3 8191 2 8097 1 6749 25 6958 33 3828 33 5483 27 2692 28 3396 32 4538 38 3454 26 5854
16902 7.9790464385446818 -2.1272267056873435 -1.4197232226982246 194 186 170 0.70981021781672904 29 7968 30 6447 35 2993 36 2240 37 2048 31 4756 14 6266
1728 -2.4442170134637111 -1.2225204211078462 6.8549222370020635 172 173 162 1.291779779158579 4 8058 7 7913 6 7645 5 7992 3 8203 2 8107 1 6746 25 6970 27 2700 28 3404 32 4523 38 3461 26 5861
16901 8.0386319845415475 -1.6602340481940976 -2.4506702519799131 152 100 84 0.51900234811356216 29 7916 30 6441 31 4842 37 2607
1727 -2.4802780851690707 -1.2245725175841411 6.8648118259788156 175 172 163 0.63294574522962255 4 8057 7 7912 6 7644 3 8202 2 8106 8 7860 1 6745 25 6969 27 2699 33 5477 28 3403 32 4522 38 3460 26 5860
16900 7.9936429276162837 -1.9068262629742578 -1.94433916565888 192 191 171 0.50500089506267454 29 7939 30 6440 35 3262 36 2571 37 2297
1725 -2.6820482025296331 -1.222370043061674 6.8564206920022697 175 175 165 0.64937120016577621 4 8055 7 7910 6 7642 5 7990 3 8200 2 8104 8 7857 1 6743 25 6967 33 3823 28 3423 32 4510 38 3465 26 5865
16898 8.0144674569438958 -1.6418522423412538 -2.5075732720285062 151 108 91 0.95765169642724612 29 7902 30 6434 31 4834 35 3621
1724 -2.7428768559330812 -1.2187331817758689 6.8462088134458003 172 169 160 0.78850774740453045 4 8054 7 7909 6 7641 6 8572 5 8857 3 8199 2 8103 8 7856 1 6766 25 6966 33 5471 27 2712 28 3422 32 4509 38 3464 26 5872
16897 8.0274367581800234 -1.6351457757661267 -2.550763123232612 150 97 79 0.21653696186239535 29 7891 30 6431 35 3622
1723 -2.8850537119688306 -1.2196778344743948 6.8509285621818004 170 170 158 0.52781260846759404 4 8053 7 7908 6 7640 4 8961 5 8856 3 8198 2 8102 8 7855 1 6765 25 6965 33 5466 27 2719 28 3429 32 4498 38 3469 26 5871
16896 7.9840561490348891 -2.0769725013662321 -1.6769346090689254 200 197 179 0.3799213208301821 29 7932 30 6425 36 2245 35 2956 37 2021
1722 -4.3822838553844043 -1.2121588205589935 6.8542218055993605 117 118 110 0.3598842532150775 7 7923 6 7637 4 8050 3 8211
16895 7.9795246998203435 -2.0669039083440106 -1.7230123940696476 198 196 181 1.0313083805517314 29 7927 30 6421 36 2212 35 2942 37 2022 31 4722
1721 2.6781427783929046 -1.3366270847709312 7.0261992174601238 172 174 171 0.60601503532676082 4 8035 6 7608 5 7980 7 7811 8 7886 9 8054 10 8374 27 2515 28 3193
16894 8.0080668046446188 -1.6081458303708918 -2.6669527793279824 148 103 84 0.59261540399839829 29 7861 30 6418 35 3604
1720 2.5255985585954277 -1.3354248072232566 7.0302290673716188 172 173 165 0.91619433099789171 4 8033 6 7625 5 7976 7 7854 3 8078 8 7882 9 8045 10 8370 27 2523 28 3200 11 7495 30 3030
16893 8.0363705113009694 -1.7058691687680076 -2.5084115708803734 150 98 84 0.64515595259350778 29 7867 30 6416 37 2480 31 4805
1719 2.4825826037372201 -1.3328161115849213 7.017808150174627 172 173 167 1.157290649429501 4 8032 6 7624 5 7975 7 7853 2 8004 8 7881 9 8044 10 8365 27 2522 28 3199 32 4700 11 7493 30 3029
16892 7.9957953513941691 -2.0624218845468096 -1.7713379987845017 195 191 179 0.75331577291209795 29 7920 30 6414 35 2943 36 2213 37 2023 31 4716
1718 2.4279647139618352 -1.3330573899850942 7.024725982982746 171 173 168 0.7051007781661438 4 8031 6 7622 5 7974 7 7852 3 8108 8 7880 9 8043 10 8364 27 2531 28 3208 2 8002
16891 7.9670762165765829 -2.2199232915322895 -1.446731772610677 195 196 185 0.94835966953301887 29 7931 30 6413 35 2763 36 1978 37 1834 31 4678
1717 2.381073150364255 -1.3319341817161747 7.0200544471234014 174 174 168 0.6323671724044011 4 8030 6 7621 5 7973 7 7851 3 6348 2 6310 8 7879 9 8042 10 8363 27 2530
16890 7.9963124001907344 -1.8634588439291202 -2.1817203639620812 185 187 176 0.9061367923028677 29 7885 30 6410 31 4762 35 3225 36 2543 37 2265
1716 2.2781551844487891 -1.3289766256619431 7.0096076006250243 173 173 165 0.78623386990792687 4 8029 7 7848 6 7617 5 7972 3 8106 2 8001 8 7876 9 8038 10 8359 27 2542 28 3219 32 4694 34 3164 30 3024 29 6855 11 7490
16889 8.038892527883915 -1.5935754396091584 -2.7997221929837197 148 98 78 1.3285544109279235 29 7842 30 6399 35 3587 37 2590 14 5057 15 6339
1715 2.1232278288552435 -1.3308924903001507 7.0141832687435821 177 176 159 0.77862351647508665 4 8025 7 7844 6 7606 5 7968 3 8101 2 7999 8 7871 9 8034 10 8348 27 2540 28 3217 32 4683 38 3308 34 5523 30 3018
16888 8.000281653405203 -2.0369407511255044 -1.9152957271743791 191 186 170 0.5706456540269299 29 7881 30 6397 35 2927 36 2216
1714 2.1232278288552435 -1.3308924903001507 7.0141832687435821 177 176 159 0.77862351647508665 4 8024 7 7843 6 7605 5 7967 3 8102 2 8000 8 7872 9 8033 10 8347 27 2539 28 3216 32 4682 38 3309 34 5522 30 3019
16887 7.9890163680220638 -2.1978303371073458 -1.5987989128943685 197 194 182 0.99203465105246902 29 7900 30 6396 35 2741 34 1895 36 1981 37 1819
1713 0.62951190172022142 -1.3245124977076741 6.9540898254817796 179 173 153 0.39025949995048587 4 8021 7 7797 6 7564 3 8077 28 3232 32 4604 38 3330 34 5514
16886 8.0450776381323195 -1.5821873365631987 -2.8453000219565161 145 98 82 0.48286607331836134 29 7834 30 6394 31 4813
1712 0.51853809237402393 -1.3217529070338228 6.9501857597569199 171 175 149 0.62755437871150066 4 8020 7 7808 6 7561 5 7953 3 8074 2 7994 8 7846 1 6668 9 8008 10 8315 33 3857 27 2557 28 3239
16885 8.0450776381323195 -1.5821873365631987 -2.8453000219565161 145 98 82 0.48286607331836134 29 7833 30 6393 31 4814
1710 0.47938060001798855 -1.3199965890694869 6.9430923077018543 169 169 145 0.55977971444196895 4 8017 7 7807 6 7560 5 7952 3 8072 2 7992 8 7845 1 6666 9 8006 10 8313 33 3854 27 2554 28 3236 32 4601 34 5512
16883 7.9857896339774346 -2.0182867977475976 -1.9785256910647722 196 186 176 1.3776207800780416 29 7872 30 6389 35 2928 31 4691 36 2217 37 2013 14 6331
1709 0.31464942838407972 -1.3176570160728762 6.9410628916194508 179 177 156 0.28196494431775426 4 8016 7 7804 6 7559 5 7950 3 8071 2 8012 8 7843 1 6692 33 3853 27 2564 28 3250 32 4594
16882 7.9894489013651659 -2.1798745532433546 -1.6969945168398082 196 197 183 1.017780480678163 29 7879 30 6387 35 2725 31 4658 36 1960 37 1805
1708 0.31519799511177149 -1.3183663482171841 6.9452253820233105 179 177 156 0.73110193641667609 4 8015 7 7803 6 7558 5 7949 3 8070 2 8013 8 7842 1 6693 9 8002 10 8308 33 3852 27 2563 28 3249 32 4593 34 6955
16881 7.9685295688820226 -2.3624639668155276 -1.3271458203091322 196 196 186 0.56933263698243575 29 7899 30 6386 35 2528 36 1672 37 1594
1707 0.27244378347460496 -1.3172363947631944 6.9399764843398906 181 182 168 0.75486150104215255 4 8014 7 7802 6 7556 5 7947 3 8098 2 8011 8 7840 1 6691 25 6879 9 8000 10 8306 28 3248 34 5508
16880 8.0491518953359886 -1.5644794509944979 -2.9454950261636603 149 100 84 0.44736667246536321 29 7810 30 6381 31 4807 35 3589
1706 0.27245803614033925 -1.3172388583925445 6.9399839815977966 181 182 168 0.71978153351896779 4 8013 7 7801 6 7557 5 7948 3 8097 2 8010 8 7841 1 6690 9 8001 25 6880 10 8307 27 2561 28 3247 34 5507
16879 8.0494845100500267 -1.5645105418378822 -2.9452658351141512 149 100 84 0.63001830382187085 29 7809 30 6380 31 4808 35 3588 36 2881
1705 0.16860174278768802 -1.314966568545904 6.9371996347563938 184 183 163 0.66176041202220437 4 8012 7 7835 6 7555 5 7944 2 8009 1 6689 9 7999 10 8304 34 5503 3 6344
16878 8.0166300369453438 -1.8229409805783676 -2.435130355412376 185 187 177 1.2373368018039494 29 7840 30 6379 35 3184 31 4735 36 2521 37 2247
1704 0.11133456605271279 -1.315905962865493 6.9408312278538551 179 178 165 0.69406061332936286 4 8011 7 7800 6 7554 5 7943 3 8096 1 6688 9 7996 27 2584 28 3259 38 3348 33 3851
16877 8.0230497022679774 -1.6420217156596844 -2.8071499852692581 148 100 87 1.3554135265020131 29 7813 30 6375 15 6311 14 5033
1703 0.11112647378379353 -1.3156189666317637 6.9399107198408663 179 178 165 0.69497397448582499 4 8010 7 7799 6 7553 5 7942 3 8095 8 7839 1 6687 9 7995 10 8303 33 3850 27 2583 28 3258 38 3347
16876 7.9781396023903808 -2.3469555576123975 -1.4220803464663747 191 192 184 0.86757354142674892 29 7878 30 6373 36 1674 35 2530 37 1596 31 4617
1702 0.073496276041465719 -1.3144769268566765 6.9328350083194348 179 180 172 0.65362609907242986 4 8009 7 7798 6 7552 5 7940 3 8094 2 8008 8 7837 1 6686 25 6892 9 7993 10 8299 33 3848 27 2581 28 3256 32 4589 38 3345
16875 8.0320179777449585 -1.545910334631901 -3.0091977698764105 142 94 72 1.03755739721341 29 7801 30 6371 31 4799
1701 0.013564604801688956 -1.3130918552576096 6.9295454064164952 184 179 157 0.70789982185124078 4 8008 7 7834 6 7551 5 7939 3 8093 2 8007 8 7836 1 6685 25 6891 9 7992 10 8298 33 3844 27 2580 28 3255
16874 8.0030394781134166 -1.9872894019242828 -2.1636826829637497 191 188 179 1.1123489778887314 29 7843 30 6368 35 2910 31 4673 36 2220 37 2000
1700 0.013602592039918248 -1.3130320139374434 6.9296371059314295 184 179 157 0.72671602767440535 4 8007 7 7833 6 7550 5 7938 3 8092 2 8006 8 7835 1 6684 25 6890 9 7991 10 8297 33 3843 27 2579 28 3254 26 5786 34 5499
16873 8.0487923456877866 -1.5449222234750171 -3.0466064896111469 144 97 82 1.6193655597151444 29 7792 30 6366 31 4789 35 3571 36 2862 37 2578
1699 -0.026128740919680132 -1.3130952320527161 6.9332747532104744 181 179 158 0.73063985058841019 4 8006 7 7832 6 7549 5 7937 3 8091 2 8025 8 7834 1 6683 25 6889 9 7990 10 8296 33 3842 27 2578 32 4579 38 3354
16872 8.0233106210725751 -1.8068304027258251 -2.5361222691247525 191 183 174 1.3255765332059373 29 7814 30 6363 31 4717 35 3162 36 2523 37 2249
1698 -0.025853462708313384 -1.312663069309739 6.9316703055348263 181 179 158 0.570016487117878 4 8005 7 7831 6 7548 5 7936 3 8090 2 8024 8 7833 1 6682 9 7989 10 8295 33 3841 27 2577 28 3265 32 4578 38 3353
16871 8.0331342292370476 -1.6250706877650394 -2.9043436226451504 141 102 95 0.8494946949503559 29 7796 30 6359 31 4763 35 3439 36 2754 37 2451 14 5044 15 6326
1697 -0.13113607812142125 -1.3114380041534976 6.9304595906191402 180 180 170 0.7972576557651343 4 8004 7 7828 6 7546 5 7933 8 7830 1 6679 25 6907 2 6318 9 7986 10 8292 26 5799 34 5495
16870 8.007831087367304 -1.8844311126566184 -2.4042187661337802 186 186 174 1.4582350567176425 29 7818 30 6358 31 4687 35 3041 36 2360 37 2111 14 4864 15 6151 34 1951
1696 -0.18568687940024026 -1.3097537033063076 6.9251644293997439 180 181 167 0.67839888877674248 4 8003 7 7827 6 7600 5 7932 3 8087 2 8023 8 7829 1 6678 25 6905 9 7985 10 8291 34 5490
16869 7.9906730413787814 -2.1428237647456561 -1.8927842774918266 197 188 179 0.59297328337542654 29 7846 30 6356 35 2712 36 1964 37 1788 31 4643
1695 -0.18564011732363092 -1.309809041836048 6.9249886136277805 180 181 167 0.63144390516549265 4 8002 7 7826 6 7599 5 7931 3 8086 2 8022 8 7828 1 6677 9 7984 10 8290 25 6906
16868 8.0304026917977538 -1.7996390099815791 -2.5843537256326381 191 181 173 1.1871768363652204 29 7807 30 6354 35 3163 36 2524 37 2227
1694 -0.22678672061289643 -1.3092717676932677 6.9245415447417926 179 180 169 0.38053739301847361 4 8001 7 7825 6 7598 5 7930 3 8115 2 8021 8 7827 1 6676 33 3839 27 2599 28 3277
16867 8.0302242336683882 -1.6116362505513557 -2.9624218498356321 147 100 86 0.84821045898250491 29 7786 30 6350 31 4759 35 3441 37 2453
1693 -0.38651660981790958 -1.3080485521293241 6.9192091649832124 180 182 169 0.90441634464328335 4 7999 7 7822 6 7544 5 7927 3 8112 2 8019 1 6674 9 7975 10 8286 33 3833 27 2596 28 3275 38 3369
16866 8.0440021152704855 -1.6168563375037737 -2.9599020448595019 147 100 86 0.96981773951877659 29 7785 30 6349 31 4758 35 3440 36 2756 37 2452 14 5048 15 6341
1692 -0.42745875562980162 -1.306412376438423 6.9172116566205526 181 181 169 0.3271042781253049 4 7998 7 7821 6 7596 5 7926 3 8111 2 8018 8 7822 1 6673 9 7974 10 8284 33 3831 27 2609
16865 7.9807910633166257 -2.3101353148206689 -1.6188684252568204 192 194 180 0.25739930977857112 29 7847 30 6347 36 1651
1691 -1.9416218152987701 -1.2886082454497148 6.8676453529977461 178 176 163 0.73606414733438041 4 7994 7 7861 6 7592 5 7922 3 8117 2 6325 25 5215 25 6926 1 6703 33 3805
16864 8.0033541265289099 -2.1282893008427881 -1.9900115697599026 190 187 170 1.0195007457428484 29 7826 30 6345 36 1966 31 4628 37 1790
1690 -1.9417567796025734 -1.2881746626751756 6.8679349535399528 178 176 163 0.28081983501878177 4 7993 7 7860 6 7591 5 7921 3 8118 25 6925 33 3804
16863 8.0014998480733475 -1.7669366802168918 -2.6914965335469403 183 183 173 0.029135187025040324 29 7791 30 6342
1689 -1.9938679513659481 -1.2854934181449555 6.8578486148460556 175 169 150 0.48756542960263138 4 7992 7 7859 6 7589 5 7919 3 8131 2 8033 1 6700 25 6923 33 3803 28 3317 26 5813
16862 7.9880073558881408 -2.1130601638984952 -2.038349982740713 191 188 173 1.0666634325141 29 7817 30 6341 35 2704 36 1967 31 4627 37 1791
1688 -2.1952208325005214 -1.2821212234042667 6.8530451137773909 178 175 166 0.4989920727513516 4 7988 7 7878 6 7585 5 7914 3 8127 2 8032 8 7808 1 6699 25 6921 33 3793 27 2649
16861 7.9926634489988668 -2.2967059393296121 -1.712968578104096 192 193 179 1.2102401524846698 29 7831 30 6340 36 1653 35 2507 37 1572 31 4579
1687 -2.195281621709217 -1.282131666661511 6.8531078211405392 178 175 166 0.49815666615530058 4 7987 7 7877 6 7584 5 7913 3 8126 2 8031 8 7809 1 6698 25 6920 27 2648 33 3792 28 3324 26 5827
16860 8.0011633468341881 -2.1087351328852439 -2.0880436154601703 194 180 169 0.86992984427790176 29 7808 30 6339 35 2689 37 1769 31 4621
1686 -2.436502414492832 -1.2807329471892759 6.8525959616221801 175 174 166 0.76007881913169262 4 7982 7 7873 6 7580 5 7907 3 8122 2 8045 8 7803 1 6695 25 6935
16859 7.991743354744993 -2.2768265112887298 -1.8139078720397557 188 190 176 0.77796002076893089 29 7812 30 6333 36 1655 35 2488 37 1574 31 4571
1685 -2.436831213992352 -1.2808045724158676 6.8531338353006568 175 174 166 0.71540417568903092 4 7981 7 7872 6 7579 5 7908 3 8121 2 8044 8 7804 1 6694 25 6934 33 3785 28 3341 26 5831
16858 7.9957669521972337 -2.0792735072055466 -2.2323361139646751 192 185 175 1.0212440443714603 29 7787 30 6323 35 2679 36 1941 31 4605 37 1759
1684 -2.4894232014007467 -1.2781231248831342 6.8439537519831388 172 173 159 0.81574201371159571 4 7980 7 6193 6 7578 5 7906 3 8120 2 6334 2 8043 8 6284 1 4971 25 5227 33 3784
1683 -2.6921303824158143 -1.2761785054473891 6.8383311421244386 173 173 163 0.52696082748146877 4 7977 7 7871 6 7574 5 7903 3 8141 2 8042 8 7801 1 6720 25 6933 27 2667 26 5838
16856 8.0107867429355686 -2.0732892159547798 -2.2836527781924221 190 184 168 1.2119010185791899 29 7780 30 6319 35 2680 36 1942 31 4598 37 1760
1682 -2.6920976439582622 -1.2762013021706813 6.838260347525428 173 173 163 0.57925513250108318 4 7976 7 7870 6 7573 5 7902 3 8140 2 8041 8 7800 1 6719 25 6932 33 3782 27 2666 28 3349 38 3425
16855 7.9953042408274451 -2.2505320865911136 -1.9578045156997417 192 193 185 0.37812105806148011 29 7790 30 6314 35 2475 36 1657 37 1558
1681 -2.7384362659155079 -1.2775936686958416 6.8451479768989625 171 173 160 0.85721167149819477 4 7975 7 7869 6 7572 5 7897 3 8139 2 8040 8 7799 1 6717 33 3781 25 5222 26 5837
16854 8.006402950009317 -2.2435710701400957 -2.0075954157990679 185 188 178 0.96047409290231212 29 7783 30 6305 35 2476 34 1736 36 1658 37 1559 31 4552
1680 -2.8949401860369193 -1.274106886508469 6.8333900122047853 169 172 161 0.72997124519926282 4 7970 7 6202 3 8137 2 8039 1 6716 7 7868 25 6931 27 2673 28 3357 38 3434
16853 7.9156747961928806 -5.1445710624162304 3.3216464939052681 178 173 153 0.32170888215684679 29 7921 33 6033 30 6303 31 6464
1679 -2.9369903191933524 -1.2749153155220376 6.8363039889645814 170 169 163 0.74568906612107744 4 7968 7 7866 6 7568 5 7893 3 8134 2 8036 8 7797 1 6713 25 6928 33 3775 27 2671 28 3355 38 3431 26 5842
16852 8.0112877255893071 -2.055534456243743 -2.3810400593292322 188 180 167 1.4057970617608269 29 7761 30 6293 31 4586 36 1944 35 2663
1678 -2.9894156022697853 -1.2724766736754118 6.8289421911992543 170 169 157 0.87458124310248575 4 7967 7 6200 6 7567 5 7900 3 8133 2 6338 8 6274 1 4963 25 5229 33 3774
1677 -4.3937955413067948 -1.2913001210542621 6.9624623884014092 119 117 102 0.29813596323288094 7 7882 6 7565 4 7965 3 8154 2 8059
16850 8.0099382692207257 -2.1891765635686222 -2.302626382431237 186 186 176 1.260950942401162 29 7726 30 6262 35 2434 31 4526 36 1635 37 1532
1676 3.133679692704026 -1.3994923450202739 7.0339953676530245 161 159 146 0.6776282272305939 4 7956 6 7542 5 7889 7 8824 3 8041 8 8835 9 8012 34 3135
16849 7.9939652207694056 -2.3063848690075885 -2.2256187891095371 160 112 78 0.80556374515566842 29 7701 30 6236 35 2258 36 1434 34 4850 37 1354
1675 3.0348790057435191 -1.3971283373549657 7.0246602902738848 163 164 156 0.67785966595582126 4 7955 6 8564 5 7888 7 8823 3 8040 8 8834 9 7998 10 8323 27 2445 28 3120 32 4672 11 7483 38 3225 33 3877 30 3011 29 6791
16848 7.9873823866371296 -2.2950012962183384 -2.2710362109621247 159 113 79 1.3356350165587019 29 7695 30 6229 31 4484 35 2238 36 1435 37 1355
